0.077429801199999995 0.054785199499999999 -0.063305996399999995 -0.98801257736468839 0.10996845684207672 -0.10834244537095222
0.3787319958 -0.047561798199999998 0.16603699329999999 0.21039935918923136 -0.84285199881306627 0.49531062753546862
0.37309199570000001 0.088854402299999996 -0.17413799460000001 0.24112112925473653 0.39721159354096297 -0.88548492419892133
0.15981200340000001 -0.0054910098999999997 0.1244340017 -0.55465980270751092 -0.24133781996859291 0.79630933682412131
-0.29340699320000002 -0.039560001300000001 0.090339496699999994 -0.12076453200886182 -0.3410926021379706 0.93224018609767556
-0.14182999730000001 -0.12866400180000001 0.13510799409999999 -0.79451953610197612 -0.22309661118362431 0.5647712889574712
0.4896999896 -0.021215299100000001 0.021350499200000001 0.94529789121986785 -0.081487568627333112 -0.31586654304385708
0.058504201499999998 0.0285781994 -0.066528499099999999 -0.19611003328684859 0.3812244700878909 -0.90344272549533433
0.093162201299999997 0.062647201099999994 -0.14587999879999999 -0.40744817873051647 0.12807657975839046 -0.90420261632367427
-0.27207899089999998 0.065268002500000005 -0.1125919968 -0.69721418258574741 0.3399659566503051 -0.63112243813711044
0.27178400749999998 -0.044354800100000001 0.18008199329999999 -0.62377222658615483 -0.705007154825535 0.33745091640793473
-0.26456099750000001 0.062647201099999994 -0.1532540023 -0.86514083232372918 0.093486575927002713 -0.49273887645247755
0.4344100058 0.041681699500000002 -0.1666840017 0.78822822848562746 0.019924756199828714 -0.61506037419816517
-0.1121189967 -0.010732400200000001 0.14946000279999999 0.25894654603132694 -0.2038046646081256 0.94414529866033614
-0.49845999479999997 0.065268002500000005 -0.1347350031 -0.99945797996801855 0.019075679857364611 0.026830294747300865
-0.1547749937 -0.24921700359999999 0.046049699200000002 -0.80468635924171661 -0.35519955189709856 0.47572380808869708
-0.20009699459999999 0.091475300499999995 -0.14030000570000001 0.2908026770184361 0.24507048101604437 -0.92486445621695068
-0.098789401400000004 -0.052663598200000002 0.1459250003 0.25065912746319918 0.047452363317683821 0.966911720393829
0.41841399670000001 -0.050043299800000003 0.14427199960000001 0.52985607815706515 -0.048627781240656004 0.84669231443991799
0.24778999390000001 -0.021215299100000001 0.15414200719999999 -0.17669638287323539 -0.53069810670111983 0.82893781903310559
-0.14959399400000001 0.012853999600000001 0.14039899410000001 -0.90159586278661474 -0.057583198028287104 0.42872960652478254
-0.25341698530000001 0.080992497499999996 -0.1566209942 -0.0006126691829070178 0.10140670064715872 -0.9948448651424654
-0.49410301449999999 0.036440301699999997 0.0239960998 -0.99982904829964903 0.0010176101821032888 -0.018461815884018209
-0.14411099259999999 -0.034318801000000003 0.15347400310000001 -0.56125799038719504 0.0072749138445643725 0.82760893171538552
-0.024141600400000001 0.041681699500000002 -0.069025501599999997 0.48015556207440119 0.30509964577294346 -0.82241403341518937
0.1838060021 -0.050043299800000003 0.1236739978 -0.52986062424370017 -0.13777611411442761 0.83681865494000829
0.4915690124 0.012853999600000001 -0.0051046399999999997 0.9778151606862594 -0.015788773736908766 0.20887370862794027
-0.16599600019999999 -0.25970000030000001 0.016059499200000001 -0.92847283027825767 -0.068304710324688517 0.36506529550553279
-0.15941500659999999 -0.1522500068 0.0848430991 -0.88403628462893646 -0.28434486618580884 0.37098226983676791
-0.49794501070000002 0.060026798399999998 -0.14796300230000001 -0.90611867846577243 0.1444423167494624 -0.39759949404833278
-0.1014560014 -0.021215299100000001 -0.1219680011 0.46678153226985586 -0.0053832683192433263 -0.88435627523866667
-0.14144499599999999 -0.2489590049 -0.044787399499999998 0.24418060535734243 -0.87266087970710171 -0.42289339199868003
-0.41604200009999998 0.083116300399999996 -0.084469899500000001 0.54629208060837575 0.60538875891647959 -0.57885180594184582
0.48154398799999998 -0.0081117405000000007 0.045159999300000003 0.8933830684592291 -0.061515116837095679 0.44506469573635132
-0.49850898980000002 0.062647201099999994 -0.1135710031 -0.99965066271599212 -0.0075401689251721974 0.025331766303546045
-0.42137598990000003 -0.023835899300000001 0.085125796500000003 0.52949658761654705 -0.2478820772809866 0.81128776612574116
-0.1841019988 0.060026798399999998 -0.14291200039999999 0.27940716708875651 0.13585157243299581 -0.9505135376452658
-0.13611400130000001 0.25894600150000002 0.0769065991 0.24007661224075358 0.91033265597736024 0.33713154067249124
-0.49399599430000002 0.010233200200000001 0.1112980023 -0.99890994678345879 -0.021936979223187585 0.041202999400881707
-0.14776100219999999 -0.1732160002 0.1007160023 -0.89439327037031424 -0.20316225658880441 0.39847932871610631
-0.49887299540000002 0.065268002500000005 -0.14002600309999999 -0.99680798539232862 0.04129397138851236 -0.068327506796690654
-0.49415999649999998 0.023336799799999999 0.1086530015 -0.99936202194309998 0.0097835974985596205 0.034348658165716625
-0.15538699919999999 -0.23611299690000001 0.045159999300000003 -0.94959973781459994 -0.044559899165232821 0.31028173218677757
0.33043599130000001 -0.055284399499999998 0.14491499960000001 0.13857754352661547 -0.35209683208703679 0.92564792727278444
0.1624779999 -0.050043299800000003 0.1068959981 -0.56082127829768169 -0.48000389871248256 0.6745930262234936
-0.49106299879999998 -0.0081117405000000007 0.13246199489999999 -0.63804389304684672 -0.094461321308927856 0.76418391066692537
-0.4027130008 0.0469231009 -0.099962696399999995 0.32708450377789894 0.33644325750752196 -0.88307511677438455
-0.10412199799999999 -0.1129399985 -0.10151500250000001 0.50626680157877202 -0.39922939547715075 -0.76440160609861962
0.22112999859999999 -0.0290773995 0.14925600589999999 -0.17669131480767977 0.11760329929075122 0.97721524919920455
0.29577800630000001 -0.033240899400000003 0.18272699419999999 -0.18431983436848631 0.79242787379772406 0.58145013843561189
0.047840200399999998 -0.039560001300000001 0.091022402000000002 0.31101729356649033 -0.31354517376451346 0.89719433073975474
0.25845399499999999 -0.050043299800000003 0.14939300720000001 -0.18775733025160732 0.071626173792138384 0.9796003655392781
0.18746800720000001 0.10457900169999999 -0.1823540032 -0.73868939585947191 0.29588768881873856 -0.60563062344161034
-0.10695999859999999 -0.18894100189999999 -0.073888197500000002 0.21986501807427877 -0.086282732034710249 -0.97170708754224044
-0.13611400130000001 0.20940700170000001 0.129223004 0.148578941866746 0.43473022518877252 0.88821952767380496
0.19980199639999999 0.096716396499999996 -0.18541200460000001 0.085117486923054486 -0.41498936713522366 -0.90583598878859417
-0.4581319988 0.080992497499999996 -0.14002600309999999 0.76687794716336677 0.28934402502561762 -0.57286843981535174
-0.1787690073 -0.023835899300000001 0.10309199989999999 -0.66386617470058173 -0.072636160448533507 0.74431558514094809
-0.1722200066 -0.0290773995 0.1086530015 -0.69291298412014768 -0.10048019748310079 0.71398552250831315
-0.032139800500000003 0.0285781994 -0.076115399599999994 0.52043594096618984 0.064349668072479368 -0.85147257828399758
-0.14144499599999999 -0.2151480019 -0.075398303599999994 0.12736815079721084 -0.26545074314634953 -0.95567424215867081
-0.49602401260000001 0.10457900169999999 -0.12473099679999999 -0.50947386839196418 0.61550578733967798 -0.60132271134316095
0.19447000319999999 0.070509701999999994 -0.17089399699999999 0.37316594547979504 -0.49598416561053188 -0.78405795997349281
0.3954719901 -0.0479572006 0.15363599359999999 -0.001411407981001731 -0.91323980042161024 0.40742002264666449
0.082279100999999993 0.054785199499999999 -0.1347350031 -0.87178392506079494 -0.16920004692256579 -0.45974355039195053
-0.33339700100000003 -0.0028702901000000002 0.077966302599999995 -0.69728474475147439 -0.12956706749565905 0.70498677984586822
-0.13611400130000001 -0.1024570018 0.1482950002 0.02885708074386149 -0.33212493461415249 0.94279387816133342
0.43409499530000001 -0.034318801000000003 0.15098099409999999 0.69863439972719221 -0.57458482158978597 0.42633585154952619
0.39975100759999999 0.065268002500000005 -0.1891860068 0.0021031852243862774 0.08822441568944249 -0.99609840331574095
0.20513400439999999 -0.045930098699999998 0.13775299490000001 -0.26026920307944168 -0.79406957602481198 0.54928448945893915
0.1038260013 0.0049918298999999996 0.085384100700000007 0.14753399130596387 0.11107788633026892 0.98279978865368689
-0.32539901139999999 0.0469231009 -0.1102859974 -0.50307305124270929 0.29634449107361255 -0.81184816790066849
-0.13611400130000001 -0.2046650052 0.090313702800000006 0.170915763523837 -0.51620471481060703 0.83923804381496181
0.4210799932 -0.026456700600000001 0.15790799259999999 0.25344244559152651 0.20301630135966012 0.94580722568334696
0.24245800079999999 0.0495439991 -0.15048000219999999 0.36205279602791685 0.48054593502160187 -0.7987448761792354
0.1064919978 -0.0081117405000000007 0.085326798300000006 0.18439621823685759 -0.032256719301772527 0.98232252277947485
0.38642200830000001 0.086233600999999993 -0.17760999499999999 -0.037334894913640705 0.17755849723811445 -0.98340179259564586
0.48450401430000001 -0.015973899499999999 0.034578099799999998 0.90081191585936005 -0.13637114496626479 0.41223876948484511
-0.49068999289999998 0.073129996700000005 -0.14708699289999999 -0.47711242722543401 0.42704251076712829 -0.7681135500593399
-0.37871900200000003 -0.015973899499999999 0.076517902299999996 0.068391171840837053 -0.28952545948866376 0.954723863702021
-0.1431459934 -0.14700900019999999 0.1245260015 -0.85731598677000997 -0.23051661546618715 0.46029489332663465
0.32243800160000002 0.065268002500000005 -0.1899790019 -0.074014645264203885 0.23159396002965218 -0.96999281954259731
-0.1387799978 0.054785199499999999 0.1669519991 -0.81288976605720187 0.05582487791074113 0.57973598408734162
-0.1147850007 0.0076125100999999999 -0.1269340068 0.38898093597349614 0.15507217406324786 -0.90810046375964404
0.079794101399999998 0.0495439991 -0.12415300310000001 -0.95031731742007286 -0.20480598489048979 -0.23441737300070795
-0.1147850007 -0.0919744968 -0.11668200049999999 0.45906297708453303 -0.2896997760578795 -0.83984237974890263
-0.15085099639999999 0.033819600900000003 0.14039899410000001 -0.86452876155107405 -0.075503744497703584 0.49687946729341875
-0.10678800200000001 0.096716396499999996 -0.099582001599999997 0.45935062514523783 0.33493503337738301 -0.8226879886051397
-0.1508959979 -0.18632000679999999 0.082197502300000003 -0.95980829179568139 -0.13804796249970691 0.24435794042743067
0.23712599279999999 0.070509701999999994 -0.15415099260000001 0.19695246961052337 -0.57101405550526652 -0.79696466240966068
-0.14144499599999999 -0.13914699850000001 0.13102500140000001 -0.70738442322582429 -0.28688704070101867 0.64599001823192281
0.3357670009 0.099337302099999997 -0.17716500160000001 0.028158486833763288 0.47002587680717617 -0.88220336360211071
0.26111999149999998 -0.031698100299999997 0.1526609957 -0.28500302919413656 -0.37373880558152617 0.88266221090101071
-0.15935699640000001 0.0285781994 0.1271709949 -0.78158893966137533 -0.084606768831445064 0.6180294686072092
-0.1121189967 -0.1365270019 -0.091950699699999999 0.44118360202233509 -0.50346517625392384 -0.74288615925066415
0.0158482008 -0.034318801000000003 0.103712 0.30640836164770036 -0.1769735844924927 0.93530437094255614
-0.46402901410000003 0.1071989983 -0.12894700470000001 0.47739375430287251 0.52844292903302814 -0.70202797245380666
-0.4360769987 0.0076125100999999999 0.1033610031 0.74830682458875575 -0.065366516613071357 0.66012431767036606
-0.49828699230000001 0.080992497499999996 -0.1135710031 -0.99949514969968323 0.0018640020311066509 0.03171704940936243
-0.045469701299999998 -0.021215299100000001 0.1263249964 0.33961452979225265 -0.095448977786637412 0.9357090700604932
-0.45672100780000002 -0.0028702901000000002 0.1271709949 0.79904472797551696 -0.050521956577942832 0.59914527002895435
0.24245800079999999 0.062647201099999994 -0.1479610056 0.053883206575189226 -0.343337010830713 -0.93766534384235734
-0.1227840036 -0.015973899499999999 0.15167999269999999 0.27358132092190623 -0.17356802600854265 0.94605887828936042
0.39485698940000002 -0.049593299600000001 0.1525470018 0.14639565042075667 -0.1088195147187459 0.98322257233764743
-0.1094539985 -0.055284399499999998 -0.1239899993 0.48628182908093898 -0.15958877727682805 -0.85910500223953035
0.31177398560000003 -0.060525599899999998 0.14640000459999999 0.14044872822968157 -0.51773419906454954 0.84393450803818559
0.40241798760000003 0.088854402299999996 -0.1755429953 0.16595891332260623 0.58291707983173102 -0.79540261322755723
-0.4920659959 -0.015973899499999999 0.1298169941 -0.85123886588693309 -0.081366636821920954 0.51843212054792431
0.17847399410000001 0.083613298799999999 -0.16603699329999999 0.21754621704802204 0.01652984472156005 -0.97591004077300891
-0.29340699320000002 -0.018594499699999999 0.096367001499999994 0.029105894399009458 -0.23228763359836191 0.97221155217807753
-0.082793399700000006 0.0076125100999999999 -0.11110799759999999 0.47293083982986173 0.081147088399008097 -0.87735487163529513
-0.28540900349999998 0.086233600999999993 -0.10201899709999999 0.14657498089410548 0.5784449480405548 -0.80244452584727166
0.4697810113 -0.023835899300000001 0.071615301100000001 0.77031347445530429 -0.23749646150217329 0.59178761548932723
-0.11745200309999999 0.20154500010000001 -0.0191901997 -0.055327934452251967 0.47891879160576606 -0.87611392564901058
-0.1601070017 0.083613298799999999 0.12992900609999999 -0.77852027862846085 -0.013750498015585389 0.62746880366165392
0.45435500140000001 -0.023835899300000001 0.11923500150000001 0.91925365661796443 -0.2619146132159596 0.29389360350037519
0.098494298800000005 -0.0054910098999999997 0.086690902700000003 0.13438199694277442 0.029838811624963484 0.99048024928237821
0.3944190145 0.091475300499999995 -0.17562800649999999 0.36057081627913146 0.067179691474484576 -0.93030939772808585
0.26645201439999999 0.094027698000000007 -0.16383600230000001 -0.27213688197443658 0.59708641747692126 -0.75460541181057472
0.20513400439999999 0.052164401899999997 -0.169817999 0.34243318369660231 0.3251685839537225 -0.88147881807388884
0.2984440029 -0.055043499900000001 0.18537299339999999 -0.055851970921610414 -0.99135860201667325 0.11869574361247708
-0.30940300230000001 0.0076125100999999999 0.093470998099999994 -0.15495087790812082 -0.024351512048978181 0.98762200729653193
0.30910798909999998 -0.0521754995 0.174789995 0.28848256797648814 -0.91689974889438175 -0.27581272351200659
0.25845399499999999 0.080992497499999996 -0.16448700429999999 -0.2921873344987358 -0.26102394932437806 -0.92005057439122795
-0.15205299850000001 -0.1103190035 0.11923500150000001 -0.86729352303221185 -0.1490811528017324 0.47494921284878533
-0.4923189878 -0.0081117405000000007 0.1298169941 -0.96162036748023361 -0.031244016886494946 0.27259875321794302
-0.1201179996 0.25955998899999999 0.042514800999999998 0.29761242579516173 0.95307992841391809 -0.055366904074911343
0.38936299089999998 -0.055259201700000003 0.15502999719999999 -0.042619882767128796 0.51920478729076058 0.85358651257343121
0.078065700799999999 0.075750797999999994 -0.087115600700000004 -0.96986802370181824 0.23076821025298214 0.078115617755764435
0.26378598809999998 0.0495439991 -0.15987899899999999 -0.67742876769348925 0.29996883192014673 -0.67164645802516032
-0.42202800509999999 0.091475300499999995 -0.081824697599999996 0.64309493166654541 0.59917664947825644 -0.47688180043362122
-0.056133601800000002 -0.015973899499999999 0.13081400100000001 0.32467925880077675 -0.17721766836499403 0.92907334313489642
-0.28540900349999998 0.060026798399999998 -0.1163730025 0.18073517147280904 0.39369344884638618 -0.90129921010069247
0.061170201700000003 -0.00024961200000000002 0.092313297099999997 0.27996346067482586 0.11571832292245698 0.95301087634244197
-0.4613670111 0.1039979979 -0.12944400310000001 0.58807133050252003 0.49742225166117293 -0.63776423056904408
0.083002902599999998 0.0469231009 -0.1320890039 -0.89566493667152947 -0.24862237557433089 -0.36874277698818908
-0.46936300399999997 0.080992497499999996 -0.14848400649999999 0.26787261709194243 0.41132424490539254 -0.8712385589293683
-0.4320389926 -0.010732400200000001 0.095931202199999996 0.67426925293112661 -0.14195648242994793 0.72471327547369813
0.13881100709999999 0.0049918298999999996 0.098070599100000003 -0.90811984065771723 0.18153740544018257 0.37730958830892308
-0.36272299289999999 0.044302400200000001 -0.096258699899999994 0.042793824131205062 0.31876487617408322 -0.94686727809865157
0.31977200509999998 -0.081491701299999997 0.17020100360000001 -0.18421757779958442 0.44063597938058108 0.8785805698426129
-0.28807500000000003 0.041681699500000002 -0.1235359982 0.15913265179292582 0.27197180184595282 -0.94905644623173868
-0.1510439962 0.21202799680000001 0.1112980023 -0.91117128851149876 0.053601751532671577 0.40852629685850705
-0.14411099259999999 -0.2484519929 0.050451300999999997 0.066619490239129789 -0.83712737322998954 0.54293609615620186
-0.0081456797000000001 0.044302400200000001 -0.061266500500000001 0.20378242320035317 0.58575938409763961 -0.78444800206014043
-0.15887099499999999 -0.2151480019 0.037223599900000001 -0.96740389969524643 -0.048875907060482421 0.2484770423267405
0.47158300879999998 -0.031698100299999997 0.061033498499999998 0.96773369592088843 -0.25138703798879741 -0.017206130027303632
-0.13611400130000001 -0.031698100299999997 0.15419499580000001 0.14208318983396598 -0.074659166122942294 0.98703514429853612
-0.1675859988 -0.052663598200000002 0.1086530015 -0.70048598043418919 -0.11917613068781618 0.70364511018654363
-0.14411099259999999 0.096716396499999996 -0.1190830022 0.38247533172543158 0.27691444627520656 -0.88149362451785029
0.49872601030000002 0.023336799799999999 -0.0209777001 0.99710200755987211 0.040834734897092599 0.064188090374749429
-0.27118399739999999 0.078371599299999997 -0.1056339964 -0.63441319211856195 0.45434683198607784 -0.62537097624542137
-0.28807500000000003 0.0495439991 -0.1208740026 0.084851270018148767 0.33987885084546132 -0.93663366837001749
-0.1281149983 -0.2099059969 -0.074848502900000002 0.14430179101782997 -0.20545991311001685 -0.96796860342361868
-0.20809499919999999 0.0076125100999999999 0.085490599299999998 -0.43570177495350937 -0.087657627426633883 0.89581253823347162
0.26811099049999998 0.0469231009 -0.16648100320000001 -0.75557170031752163 0.29137698817998042 -0.58669485802966825
0.28511399030000001 -0.034318801000000003 0.184194997 0.11993169409455635 0.63369369803814168 0.76423078047037241
-0.15808999539999999 -0.094595298199999997 0.1139440015 -0.79619634765315295 -0.11952831374990185 0.59311411903265698
-0.25341698530000001 0.10457900169999999 -0.15271699429999999 -0.1515486059468503 0.30153654747384534 -0.94133348531384964
0.1011599973 0.080992497499999996 -0.14209899309999999 0.0021350267976859077 0.46153258391167645 -0.88712068832170998
0.077166199699999993 0.036440301699999997 -0.070873796899999994 -0.88092650216889379 0.12783008846592417 -0.45566211852563737
0.19713599979999999 -0.015973899499999999 0.13809399310000001 -0.35463354095439276 -0.083797205656974419 0.93124276102111625
0.44773998860000003 0.052164401899999997 -0.1521970034 0.57744102493483662 0.21693827960610293 -0.78708299788761149
0.30377599599999999 -0.052663598200000002 0.1946019977 -0.077891081273797638 -0.71201396985475995 0.69783170334233446
-0.44803598519999999 0.0180954002 0.1175739989 0.67648586087296592 0.060391880934828619 0.73397527257811312
0.37575799230000001 0.086233600999999993 -0.17463700469999999 0.051109708915158758 0.37601544965268663 -0.92520277738293433
-0.13611400130000001 0.17271700500000001 0.1441940069 -0.063192749303830675 0.35149858565804809 0.93405322156492521
0.32776999470000001 0.083613298799999999 -0.1846109927 -0.016175278118237331 0.37714638886892032 -0.92601239826523418
0.49329900739999999 0.0469231009 -0.071242496399999994 0.98152467253845543 0.10093778863503051 -0.16254500922436199
0.078680299199999998 0.080992497499999996 -0.1109249964 -0.87107797476447479 0.4856816741162564 -0.073051169106670408
0.3917540014 0.054785199499999999 -0.1860989928 0.036718389034129731 0.20199260664438434 -0.97869849635510597
0.26629400250000002 -0.034318801000000003 0.15627199410000001 -0.6193356428479444 -0.77021075076911472 -0.15231139451071982
-0.49847799539999998 0.044302400200000001 -0.1135710031 -0.99980585654944731 -0.0047606762791797515 0.019120281660861389
0.31444001199999999 -0.072292700400000007 0.1589169949 -0.49534567505711313 0.80986858486440361 0.314238026743965
-0.15054099260000001 0.075750797999999994 0.1430439949 -0.82150576490507032 0.0068879760682914936 0.57015860426149656
0.31977200509999998 -0.046578399800000003 0.1615629941 -0.027199292254580783 -0.98645622892983831 -0.16175384665092893
-0.13344800470000001 -0.16011300680000001 -0.082701601099999994 0.062054480337554091 -0.55047967576164747 -0.83253910901734085
0.44240701199999999 -0.036939501800000003 0.117380999 0.80717607312742368 -0.5618379835473104 0.18112113961126744
-0.1147850007 0.22032900150000001 0.11658900229999999 0.27411919163699827 0.56768953580713999 0.77626494169925808
-0.32836401459999998 0.0049918298999999996 0.087488397999999995 -0.7129682768887653 -0.039110586975516948 0.70010470512395184
-0.15555499489999999 -0.22301000360000001 0.047805599900000002 -0.9511927738157242 -0.080878089003988574 0.29781041244357348
0.4344100058 -0.0379686989 0.1430439949 0.62924066151925795 -0.7383480883716258 0.24268969959347836
-0.49366301299999998 -0.034318801000000003 0.1218800023 -0.96116253439139065 -0.12177246019135263 0.24766519824404967
-0.4746930003 0.067888796299999998 -0.1546819955 -0.010177310165909481 0.29237912762316792 -0.95624832971781026
-0.2267570049 0.094096101799999998 -0.14829200510000001 0.28007676204471754 0.19847815855569384 -0.9392355550866287
-0.1201179996 -0.2099059969 -0.073437802499999996 0.18984541885484862 -0.28207159585328906 -0.94042242197461767
-0.1459749937 0.21988999840000001 0.1218800023 -0.74723368861889716 0.16108391659059734 0.6447431941547197
-0.1609400064 -0.052663598200000002 0.11658900229999999 -0.7789405750404087 -0.18114349118950213 0.60036540219719214
-0.49431100490000002 0.0180954002 0.074260897899999997 -0.99998637291246062 0.0042900528229750136 0.002974800187797362
0.1171559989 0.062647201099999994 -0.148202002 -0.29627833869843662 0.35469862104733968 -0.88679650103347285
-0.46123799679999999 0.062647201099999994 -0.1506080031 0.65508041767021119 0.22707210092788835 -0.72063021541232686
-0.44803598519999999 0.065268002500000005 -0.1339299977 0.68203525851383151 0.26256117673798107 -0.68256101164213701
0.48014599079999998 0.0023711100000000001 0.047805599900000002 0.88849400652744692 0.0001405962456661048 0.4588882005429003
-0.4613670111 -0.042180798899999997 0.1248060018 0.57375992717031099 -0.24844859964216381 0.78043118806808798
0.28777998690000001 -0.054485700999999997 0.1721449941 0.22356754123219494 -0.97313571046697545 -0.054994940870281082
-0.14411099259999999 -0.16797499360000001 -0.077318802500000006 -0.14747086317992339 -0.49480021204092045 -0.85640241398377004
0.34880399699999998 -0.055328398899999999 0.1521320045 -0.48399197007067224 0.16380366833706958 0.85960463653148644
0.2024679929 0.099337302099999997 -0.1859679967 0.26814756338978646 -0.29886424772858611 -0.91584771969893908
0.17847399410000001 0.091475300499999995 -0.16631999610000001 -0.48315420570686751 -0.058684060076609403 -0.87356636530986631
-0.37605300549999998 -0.031698100299999997 0.069609902799999998 0.11146098744656308 -0.4684827714092335 0.87641333922422759
0.3357670009 -0.057905301499999999 0.14904899899999999 -0.27370889581783348 0.69728398471336894 0.66247904496099252
-0.32906499509999998 0.075750797999999994 -0.089761301900000007 -0.76930669664451889 0.42945356222693631 -0.47300829209274242
-0.026807600599999998 0.044302400200000001 -0.069849602900000002 0.576699207605471 0.24389962817755828 -0.77969929801306781
0.078606598099999994 0.065268002500000005 -0.12944400310000001 -0.92063498460403015 -0.014535748092273282 -0.39015373527692271
0.21846400199999999 -0.050043299800000003 0.14067299659999999 -0.33664626713235407 -0.28376160581438464 0.89785780716742303
-0.2480850071 0.052164401899999997 -0.15648399290000001 0.16681140555996926 -0.074111275967511381 -0.98319961032822578
-0.16437600550000001 0.015474599800000001 0.11923500150000001 -0.73933461547385149 -0.10789696399878117 0.66463717284092516
-0.44803598519999999 -0.00024961200000000002 0.116613999 0.64285051464259124 -0.096485997265781734 0.75989056327564908
-0.35205900670000001 0.0180954002 0.077518999599999999 0.12351878681018211 0.1123679419032908 0.98595971263402005
-0.1281149983 -0.24066199360000001 0.058387801099999997 0.17576403385846295 -0.84275280972449018 0.50879731338056244
-0.11745200309999999 -0.1443890035 -0.089186198999999994 0.33608536684773649 -0.52907268118829187 -0.77918465347506316
0.38909199830000002 -0.065770797399999997 0.15753699839999999 0.14409736665436035 0.04206132852399571 0.98866920330617936
0.063836201999999995 0.0495439991 -0.056356798899999998 -0.26188156151289121 0.55904771011968823 -0.78669162036308926
-0.14944399890000001 -0.2497439981 -0.0474328995 0.22925730178557538 -0.88286521300145304 -0.40986596010146614
-0.4973509908 0.065268002500000005 -0.087115600700000004 -0.99893912065951307 -0.010496051323703121 0.044838221670903462
-0.13611400130000001 -0.1103190035 0.14496399460000001 -0.017872906475739733 -0.38835656558983322 0.92133584385791634
0.45307201149999998 -0.029007300699999999 0.098070599100000003 0.82738510014002997 -0.55130196918050556 -0.10723821540835864
0.19447000319999999 -0.031698100299999997 0.14084599910000001 -0.424046227961135 0.35464109512573877 0.83331536059282496
-0.4962680042 0.075750797999999994 -0.14267100390000001 -0.61913696450823408 0.40081758222678354 -0.67528859383037509
-0.0188098997 0.052164401899999997 -0.060151800499999998 0.49170795198589001 0.45172512536535692 -0.74442440923675679
0.49422699209999998 0.025957500599999999 -0.073888197500000002 0.9993396308669158 -0.030678178450640588 0.019471814135487556
0.26378598809999998 0.080992497499999996 -0.16668500010000001 -0.42090459615162151 -0.16351261995207375 -0.89224601094925005
-0.28807500000000003 -0.018594499699999999 0.095275796900000001 0.32382435973707879 -0.20531533025683033 0.92357100387701629
0.34110000730000001 0.094096101799999998 -0.17953899500000001 0.099762393516291181 0.41399969512760404 -0.90479374294595538
-0.1489180028 0.0049918298999999996 0.14039899410000001 -0.91500551485513593 -0.020465575718676302 0.402921913024336
-0.2667469978 -0.031698100299999997 0.066502302900000004 0.15501683610148723 -0.14791367014221313 0.97677598594055592
0.24512399730000001 0.073746800400000007 -0.15589900309999999 0.001973095813539231 -0.6558436826519719 -0.75489414543922007
0.090496100499999996 0.054785199499999999 -0.14469200369999999 -0.60761502914685417 -0.02344161625174172 -0.79388567626729067
-0.46936300399999997 0.062647201099999994 -0.15542399879999999 0.25776408478924884 0.24480562662267177 -0.93468063089305631
0.4729779959 0.039060998700000002 -0.12679800390000001 0.79795219285293006 0.17297879719285603 -0.5773652515028187
-0.1227840036 -0.25794500110000002 0.00283191 0.25166645539340415 -0.96652357416901169 -0.049961743417123124
0.25845399499999999 -0.029267599799999999 0.1589169949 -0.73549571465614272 -0.62822887191401544 -0.25372137910726683
-0.49422699209999998 -0.026456700600000001 0.1007160023 -0.99969014054798722 0.0046269844062789556 0.024458411772835618
-0.1387799978 -0.1732160002 0.1126919985 -0.25228098210244632 -0.52964401764005309 0.80983425504699935
-0.4144040048 0.020716000299999999 0.087488397999999995 0.47800323993900345 0.07620493261829786 0.87504611927169651
0.13940399889999999 -0.036939501800000003 0.092779703399999996 -0.83404408156417198 -0.23181763791176005 0.50063065503501591
-0.12260299920000001 0.25920099019999998 0.058387801099999997 0.27110007485855137 0.94771775158310556 0.16833244709785122
0.32510399820000002 -0.070594400200000004 0.16420899329999999 -0.25156213366382923 0.78990335384065979 0.55925770848310996
0.15447999539999999 0.086233600999999993 -0.17557600139999999 -0.64987606932101105 0.064765754966225039 -0.75727570376153441
-0.46669599410000001 0.0076125100999999999 0.13568599519999999 0.31209200361419981 -0.017920310973567551 0.94988285790127025
0.074500203099999995 0.031198900200000001 -0.069189697499999994 -0.60984842712336562 0.2865643705312278 -0.73889495699808261
0.13315199320000001 -0.0133531 0.087972499400000001 -0.68625588249098357 -0.13767660734423279 0.71421146415939252
0.4981850088 0.0180954002 -0.018332200100000001 0.95824682562463515 -0.048192959185276898 0.28185184027299914
0.36509400609999998 0.067888796299999998 -0.1850000024 0.19336371119429194 0.26635484922111152 -0.9442804506551904
-0.27207899089999998 0.080802999400000006 -0.1029890031 -0.44055680376446338 0.54721462337278204 -0.71166414735029637
0.0878299996 0.062647201099999994 -0.14224599299999999 -0.65307727921025105 0.067690105572740189 -0.75425997970652481
0.3784239888 0.052164401899999997 -0.18574899440000001 -0.053285735868423167 0.26495625166078696 -0.96278700399352413
0.49209699029999998 0.0023711100000000001 -0.0077501697999999997 0.9844721591653115 -0.047297415096975069 0.16904887563522522
0.2024679929 0.094096101799999998 -0.1831959933 0.30013712602671577 -0.49621812163006429 -0.81466881697187488
0.077345900199999998 0.062647201099999994 -0.0527237989 -0.82075743230486375 0.48255849018311314 -0.30576877026361188
-0.38671699170000001 -0.0081117405000000007 0.078748196399999998 0.072459475313717589 -0.2021526925157667 0.97666980773743928
-0.1841019988 0.075750797999999994 -0.1397950053 0.29102383242084229 0.23069597711452353 -0.92848505378722224
0.13848400120000001 0.086233600999999993 -0.15864999590000001 0.62226874988130443 0.39470251701567843 -0.67601148361743602
0.17580799759999999 0.070509701999999994 -0.1660220027 0.13939838835986193 0.077552971867439383 -0.98719482670706959
-0.29340699320000002 0.039060998700000002 -0.1244729981 -0.011395767811375357 0.27043451645117572 -0.96267092445331914
-0.14144499599999999 -0.16011300680000001 0.1199629977 -0.70561490343726085 -0.39058867738306441 0.59122592394732953
0.32510399820000002 -0.047781500999999997 0.16685399410000001 -0.018496167233548869 -0.99154140353520359 -0.12846609230885547
0.3357670009 -0.048992898299999997 0.16949899490000001 -0.027206874317258961 -0.95360546309092187 0.29982729487662257
0.48826700449999999 0.0076125100999999999 0.0134140002 0.98611017583365157 -0.14800849086424275 0.075367152987320898
0.48341700430000001 0.0495439991 -0.1056339964 0.96539358177891943 0.15873206050708552 -0.2069284060423886
-0.49068999289999998 0.1098200008 -0.12328699980000001 -0.42513969628873149 0.5958965099971455 -0.68129552179120256
0.48817399140000001 0.031198900200000001 -0.092406496399999996 0.97143654947373137 0.076870413275317698 -0.2245038305006232
-0.17077100279999999 0.0076125100999999999 0.1116020009 -0.68489414818728511 -0.077341709896024416 0.72452623533532068
0.40775001049999998 0.094096101799999998 -0.1684329957 0.39167104964216182 0.51997866916069513 -0.75908890947640617
-0.13611400130000001 0.12030299749999999 0.15843600029999999 -0.46186112879654517 0.15591920882545113 0.87314002200450447
-0.1147850007 0.24958699940000001 0.0848430991 0.28247107355754025 0.8838095526587485 0.37294874611988393
0.090496100499999996 -0.0133531 0.087848201400000006 0.15335000290316575 -0.038749576732442975 0.98741189324043277
0.1144900024 0.070509701999999994 -0.1445260048 -0.0039988897396604391 0.39818619064827515 -0.9172958990739386
-0.17077100279999999 -0.0133531 0.1107779965 -0.68593886797384607 -0.024697855361545343 0.72723990906942049
-0.15218700469999999 0.015474599800000001 0.13510799409999999 -0.86413242020571968 -0.10023391291519183 0.49318183568650981
-0.1147850007 -0.050043299800000003 -0.1276910007 0.46618341893358006 -0.10028498910085025 -0.87898574554564912
-0.1094539985 0.2434760034 0.0088739701999999993 0.26716248409356746 0.76499435383222569 -0.58601010716349422
0.36509400609999998 0.052164401899999997 -0.18861299749999999 0.18264252864129757 0.16491523266225366 -0.96924954101999328
0.30644199249999998 -0.071008898299999998 0.14490799609999999 -0.44492438399249051 0.38258648094294001 0.80973444852531773
-0.14144499599999999 -0.00024961200000000002 0.1600580066 -0.4859491987300017 -0.22759022163825177 0.84383414677786117
0.38375499839999999 0.088854402299999996 -0.17682899530000001 -0.27862043941892078 0.21277041918213338 -0.93653585060000066
0.4472070038 -0.034318801000000003 0.1086530015 0.68351326407635005 -0.72991525927489376 -0.0057733966915968849
-0.1307809949 0.26230099800000001 0.053096499300000002 0.23634178863172875 0.96733652542395765 0.091665727112482998
-0.1094539985 0.24652199450000001 0.087488397999999995 0.30578186274568087 0.84522727175251022 0.438278805672359
-0.32006698849999998 0.078371599299999997 -0.094149500100000005 -0.28447884360595893 0.61357355857024842 -0.73661338282986577
-0.11037799719999999 0.23823499679999999 0.00283191 0.25659320960877197 0.69655389614954244 -0.67005417284094382
0.48100700969999999 0.065268002500000005 -0.097697801900000006 0.96454307417113427 0.23558262879084257 -0.11898522210969657
0.22912800310000001 -0.060525599899999998 0.14214499289999999 -0.32386544713986914 -0.35972542506534161 0.87504787909602511
0.089619703600000003 0.0469231009 -0.14267100390000001 -0.73907989681114505 -0.1494307335199484 -0.65683434898710757
-0.24637800460000001 0.073129996700000005 -0.15589900309999999 0.21296237430608983 0.046054129726866226 -0.97597440758711174
-0.46669599410000001 0.11181300130000001 -0.12679800390000001 0.34697718625795848 0.62521440991422295 -0.69908066333730035
-0.49381899829999998 -0.031698100299999997 0.11923500150000001 -0.99651132285696176 0.011524198195480803 0.082658189393546133
-0.13611400130000001 -0.15487100179999999 0.12609399860000001 0.034711931943302125 -0.52001549332044006 0.85345121037318994
0.1278200001 -0.0081117405000000007 0.085160903600000004 -0.33775427594586305 -0.013649261509515629 0.94113534985172587
-0.098789401400000004 -0.044801600300000001 -0.11946500090000001 0.4909694432694669 -0.10416174551029353 -0.86492735911631247
-0.1467950046 0.039060998700000002 0.14833499489999999 -0.90350261269075482 -0.033308313383850499 0.42728630345530977
-0.14403200150000001 0.0180954002 0.15627199410000001 -0.93810990648342096 0.0537467488506237 0.34214191550532808
0.47427600619999999 0.0469231009 -0.12150699650000001 0.81943080849199113 0.22589533847374835 -0.52678690772454906
0.13548900189999999 -0.0028702901000000002 0.092779703399999996 -0.86362914429898485 0.065409256596506579 0.49986631239652018
-0.39204901460000002 0.057406000800000002 -0.092646099600000004 0.15799564070090652 0.46948565737723885 -0.86868900939091664
-0.1281149983 0.1881210059 -0.0262687001 -0.12615175588770505 0.79377329002102592 -0.59498714148765042
0.076998896900000002 0.075750797999999994 -0.11621599639999999 -0.93793195404844854 0.31896387249454605 -0.1361825892621451
0.48877298829999999 -0.015973899499999999 0.00283191 0.86437405963900049 -0.17848509113667946 0.47010696364245103
-0.14411099259999999 -0.050043299800000003 0.15239800510000001 -0.69665021182003573 -0.07053170883572607 0.71393540353438967
-0.11745200309999999 -0.23890499770000001 -0.050078500099999999 0.29355821694587214 -0.81554647291666738 -0.49870584894980297
-0.1681060046 0.1019579992 -0.1269540042 0.31648397773547116 0.26647402803224657 -0.91040072727398647
-0.1547749937 -0.26005700230000001 -0.023623300699999999 0.22241417624362453 -0.92106079233997096 -0.31965442437096769
0.023846199700000001 0.033819600900000003 -0.058958500599999998 0.073198157259718719 0.24641335963722516 -0.96639665043194201
0.2531220019 0.088854402299999996 -0.1646510065 0.040433967631512698 0.034594952933186186 -0.99858313799759535
0.2078000009 -0.063146397500000007 0.13354699310000001 -0.1831418972241253 -0.52563184084633929 0.83076483638249687
0.23445999619999999 0.065268002500000005 -0.1515920013 0.37712400444195693 -0.44034663468326557 -0.81478360722144216
-0.13611400130000001 0.052164401899999997 0.16871500019999999 -0.39183969577058025 -0.0018811754561615787 0.92003158315207978
0.14330500360000001 -0.044801600300000001 0.092779703399999996 -0.77187003244473984 -0.3758760079824624 0.51277078664538245
0.4071519971 -0.065513901400000005 0.15637099739999999 0.13620439181242691 -0.084623049005765338 0.98705992889387151
0.49404498930000001 0.023336799799999999 -0.0077501697999999997 0.88643313969514426 -0.11347360613333037 0.44873157852028495
0.1624779999 -0.039560001300000001 0.121638 -0.56789639578036077 -0.4252646363844651 0.70472950321415151
0.18114000559999999 0.070509701999999994 -0.1684840024 -0.6530598394508409 -0.079388372402816279 -0.75313367500309913
0.27524301410000002 0.0495439991 -0.17441800239999999 -0.71806342362434328 0.24003925256890574 -0.65327335540265852
-0.33872899410000001 0.010233200200000001 0.077390700600000001 -0.071557058665407208 0.0038383381799500893 0.99742912255215999
0.084682099499999997 0.080992497499999996 -0.1320890039 -0.70861935631007045 0.4801993043190837 -0.51697895120997872
0.23712599279999999 0.062647201099999994 -0.14906199279999999 0.29647656241658571 -0.33402017349701785 -0.89472463452990181
0.029178200299999998 -0.034318801000000003 0.099416002599999997 0.32467056688131923 -0.21890663995848239 0.92014613295011471
0.47359800340000002 0.0049918298999999996 0.061033498499999998 0.98530952616590328 0.12466250771705338 0.11672359151610572
0.26660498980000003 0.057406000800000002 -0.16119000319999999 -0.76067068728162746 0.027667245039664952 -0.64854809309904826
-0.13344800470000001 -0.25745299459999998 0.026641599799999999 0.24316709049570506 -0.92352152580092617 0.29661044735845521
-0.15518400069999999 0.1438889951 0.11923500150000001 -0.87715663292655122 0.18035842931123119 0.4450472764654797
-0.29340699320000002 0.015474599800000001 0.1010089964 -0.039473816393741541 0.013314148174346013 0.99913189883903952
-0.25341698530000001 -0.031698100299999997 0.066144198200000004 -0.079871356602590621 -0.16537058880872171 0.98299193015584752
-0.4342130125 0.044302400200000001 -0.12415300310000001 0.73946528503178632 0.1558258155625 -0.65491175545804692
-0.16277299819999999 0.052164401899999997 0.12457499649999999 -0.75151607804016163 -0.044843129749669447 0.65818893804240453
-0.46936300399999997 0.099337302099999997 -0.13776400690000001 0.17684329596561357 0.55659944955633589 -0.8117410310102614
0.26181599500000002 -0.034318801000000003 0.1721449941 -0.81207265130604589 -0.53128868675840302 0.24139250262446146
-0.11745200309999999 0.1071989983 -0.10126200320000001 0.46599629181925029 0.34834039237318098 -0.81333045378370428
0.25845399499999999 -0.060525599899999998 0.14928199349999999 -0.083494051092128777 -0.33927358395476581 0.93697501496182578
0.22646200659999999 0.082659602200000001 -0.16648100320000001 0.21835734869327511 -0.54822570271571391 -0.80732189810106425
-0.14647500220000001 -0.081491701299999997 0.14039899410000001 -0.93161037965760152 -0.079991594845789812 0.35454681675097122
0.1651439965 -0.034318801000000003 0.1227559969 -0.54647978884541037 0.42604160978871358 0.72100512280573803
0.26399800179999999 0.054785199499999999 -0.15854400399999999 -0.72095494798197002 0.10960888394287957 -0.68425861744015437
-0.30940300230000001 -0.031698100299999997 0.084983401 -0.17578852955124441 -0.37223184860452202 0.91134068479502861
-0.44803598519999999 0.0843539014 -0.12415300310000001 0.57883847078299455 0.49080102311415835 -0.65119918646424901
-0.2177450061 0.054785199499999999 -0.1506080031 0.17584308054907055 0.034229213022428887 -0.9838229373209787
0.1519989967 0.078371599299999997 -0.1717720032 -0.90666348209816061 -0.023668798136989123 -0.42119012123314181
-0.1524659991 -0.17583699520000001 0.0848430991 -0.93853270830411162 -0.22703525695746846 0.2600218212796872
-0.145953998 -0.073629200500000005 0.1430439949 -0.9244848266279736 -0.088992197631048625 0.37068611262824802
-0.49742600320000002 0.086233600999999993 -0.087115600700000004 -0.99935632765085181 -0.024283381060639674 0.02640544997660918
0.24778999390000001 -0.063146397500000007 0.1463689953 -0.16167155399105995 -0.65581332094992006 0.73740843275267276
-0.33606299760000002 0.010233200200000001 0.077818103099999994 -0.36238786224959324 -0.020824867222518788 0.93179469959821848
-0.1681060046 0.065268002500000005 -0.1367020011 0.33664802037952057 0.18592084056259514 -0.92309346840883244
-0.14378699659999999 -0.073629200500000005 0.14833499489999999 -0.87616145311959071 -0.097298253139325094 0.4720954966989232
0.0265122 0.0495439991 -0.052489500500000001 0.062113453204769693 0.59725836954324563 -0.79964014340297018
-0.14144499599999999 -0.1732160002 -0.076435796900000005 -0.13341985126920697 -0.017070405926607534 -0.99091258167852703
-0.36538898939999997 0.060026798399999998 -0.0887281969 0.055197887262971305 0.53259184704213081 -0.84457037463195206
-0.1014560014 0.187808007 -0.0262687001 0.20217428813185398 0.49737434329650931 -0.84364940576565584
0.40536400680000001 -0.060621500000000002 0.1557579935 0.26359311539794411 0.35270991963368409 0.89783872833978728
-0.49602401260000001 0.083613298799999999 -0.13760900500000001 -0.56909664309746688 0.40359587310660539 -0.71640727385092295
0.48854199050000002 -0.023835899300000001 0.00018642100000000001 0.88791500873226925 -0.16720594954061882 0.42854300566710263
0.2157980055 0.057406000800000002 -0.162766993 0.49569215067503009 0.12455478696936376 -0.85952044583138321
0.076138898699999999 0.073129996700000005 -0.1135710031 -0.97850243103628398 0.20420611269189634 -0.028859244538741152
-0.16348700229999999 -0.18369899689999999 0.042514800999999998 -0.89308120162039617 -0.35678361961285571 0.27406462027817124
-0.33339700100000003 0.056159999199999998 -0.095052100700000003 -0.7443477831835319 0.32489195937453497 -0.58343088057072989
0.0265122 -0.026456700600000001 0.1018970013 0.29757723786044976 -0.17105708652790982 0.93924824229589521
0.13048599659999999 -0.0081117405000000007 0.086289800700000002 -0.59766070283622119 -0.014775502488409684 0.80161297944302834
0.29311200980000002 -0.055284399499999998 0.15252099929999999 0.019288813304191216 -0.13891950268210715 0.99011580810320965
-0.27207899089999998 0.083613298799999999 -0.1009489968 -0.43510824464409181 0.59676477655880866 -0.67420517418768922
-0.45069900159999998 0.075750797999999994 -0.1311469972 0.5972461355239298 0.38043423258303705 -0.70609266267302861
-0.13344800470000001 -0.1627330035 -0.081137299499999996 0.044188577597088462 -0.41803931617700973 -0.90735356931033462
-0.066797397999999994 0.044302400200000001 -0.0956574008 0.47301534517910859 0.2137766075232482 -0.85472571348997095
0.26378598809999998 -0.039560001300000001 0.14972099659999999 -0.31114314425306105 -0.33445571909757588 0.88956692595174769
-0.14790700379999999 0.1019579992 0.1456899941 -0.83883005117938525 0.074058792439805593 0.53933240260598825
0.42856198550000002 -0.044801600300000001 0.13510799409999999 0.72655068813885348 -0.050128563722539661 0.68528185782499296
0.0158482008 -0.0054910098999999997 0.10811199990000001 0.31548607740832441 -0.08108675374677464 0.94545939803268053
-0.23742100599999999 -0.034318801000000003 0.069342799499999996 -0.31096507379310401 -0.13826803378255895 0.94030988174896601
-0.14720499519999999 -0.16011300680000001 0.1086530015 -0.8912233846637595 -0.21711535500393939 0.39822330575945197
0.3331019878 -0.0615516007 0.15362599490000001 -0.2603716681002517 0.83038473730517959 0.49261321795227958
0.47948500509999997 -0.0290773995 0.042514800999999998 0.79601619052055506 -0.23504698402316171 0.55777337667798288
0.26913499829999998 -0.0474224985 0.1721449941 -0.64127278007098421 -0.74993604335825581 -0.16237349664337306
0.15714600679999999 0.086233600999999993 -0.1766290069 -0.14872217500924251 0.14873961447564094 -0.97762888753665522
0.4981229901 0.0285781994 -0.015686700099999999 0.98344126494262807 -0.01714004138416516 0.18041479260136231
-0.1499380022 -0.060525599899999998 0.13510799409999999 -0.9445356422088097 -0.073365153145867626 0.32010931711069363
-0.48536100980000002 -0.00024961200000000002 0.13542799650000001 -0.31851510470316957 -0.036775074381000389 0.94720416066453206
-0.14993900060000001 -0.0028702901000000002 0.13775299490000001 -0.90101262741955379 0.0025007756173555133 0.43378565138997399
0.29577800630000001 -0.0550642982 0.16949899490000001 -0.1534618560300948 -0.98194555797791405 -0.11060009001461743
0.3438799977 -0.050874400899999998 0.15870399769999999 -0.22305899708645927 -0.96136712893853615 0.16130073532150696
0.4826759994 -0.023835899300000001 0.037223599900000001 0.93565152585638012 -0.16936117373903409 0.309633678711416
0.24778999390000001 -0.026456700600000001 0.1525389999 -0.11495793190496573 -0.35437184552837026 0.92801145951380903
0.4210799932 -0.076250098599999996 0.14965200419999999 0.37677394783724316 -0.40824224970242956 0.83149242798057854
-0.45633900170000002 -0.031698100299999997 0.1218800023 0.8468660803238105 -0.12939837274592858 0.51582351936267012
-0.11745200309999999 -0.015973899499999999 -0.13030399379999999 0.44101903633575112 0.016871478623176648 -0.89733915706300982
0.48864001039999999 0.0180954002 -0.089761301900000007 0.95247856523874108 -0.0065908466871390479 -0.30453430595040637
0.49842000009999998 0.010233200200000001 -0.0474328995 0.92727713262017564 0.15708577534956425 -0.33982521757887746
-0.28540900349999998 -0.021215299100000001 0.093166597200000006 0.61512620516509764 -0.187165884343755 0.76589077775947023
-0.41604200009999998 0.088015303000000003 -0.079179100700000005 0.53989479214267588 0.65410223919838362 -0.52977719287722957
0.43174400930000001 -0.031698100299999997 0.1561080068 0.60424683732298556 -0.32762342890197982 0.72632544249783704
-0.15138700599999999 -0.1365270019 0.1112980023 -0.8941864775060413 -0.17996695095324555 0.4099297988801619
-0.15278099479999999 -0.052663598200000002 0.1298169941 -0.89266957406197367 -0.11478092194834805 0.43585131811284195
-0.26728698610000001 0.080992497499999996 -0.12150699650000001 -0.98770556519757979 0.12330123551298625 -0.096096419281368486
-0.098789401400000004 0.141268 -0.069750599600000004 0.51570167565428071 0.50980836810114805 -0.68858348044475437
0.40998598930000002 -0.034396298200000001 0.1621930003 0.33919182103541801 -0.21979088891342707 0.91468074960246226
0.47265499830000002 -0.023835899300000001 0.066324397899999998 0.91568381472471461 -0.1950212492120274 0.35141124598819362
-0.14083799720000001 0.036440301699999997 0.16420899329999999 -0.90472009526212727 -0.0089358429975210339 0.42591278442752917
0.34909799699999999 -0.066600203499999996 0.16420899329999999 0.0053448350410509353 0.72447025989171221 0.68928533661381408
0.41745099429999999 0.083613298799999999 -0.16648100320000001 0.62279322394894077 0.2810030521339158 -0.73018209023140823
-0.1281149983 0.2617470026 0.045159999300000003 0.25086639112380793 0.96760745741352139 -0.028317170802481778
0.46373599770000001 0.078371599299999997 -0.13083599509999999 0.69651837067484867 0.29972659785652928 -0.6519402778244372
-0.25608301160000002 0.099337302099999997 -0.15349200369999999 -0.43876315156666229 0.23771084523446673 -0.86659128248858208
-0.38671699170000001 0.052164401899999997 -0.094398900899999999 0.11551134041904082 0.38884738899909388 -0.91403218668884068
-0.45482099059999997 0.099337302099999997 -0.12415300310000001 0.82242575858628708 0.32235689916328641 -0.46872369384916002
0.28511399030000001 -0.048694301400000001 0.1615629941 -0.33203352019465315 -0.69123014080919032 -0.64183692158059424
-0.49444401259999998 0.023336799799999999 0.016059499200000001 -0.99912115278206004 0.041393256626122844 -0.0065969969934193207
