-0.138163 0.27687 0.145943 -0.690244 0.442509 0.572494 
-0.291837 -0.154546 -0.265204 -0.820461 -0.0581672 -0.568736 
-0.29291 0.286757 -0.107751 -0.686311 0.189258 -0.702252 
-0.213025 -0.357147 -0.244809 -0.587538 -0.363019 -0.723199 
-0.28165 0.17265 -0.0940832 -0.834625 -0.438629 -0.333177 
0.00296378 0.0317147 -0.230756 -0.170638 -0.520941 -0.836363 
-0.270158 -0.383815 -0.105536 -0.912206 -0.392797 -0.116577 
0.123842 -0.114292 -0.0409738 0.672176 -0.21456 -0.708621 
-0.031617 -0.370288 -0.263226 0.454594 -0.335013 -0.825294 
0.197261 0.178003 0.171684 0.341519 0.12547 0.931462 
0.0591587 -0.315256 -0.123564 0.63132 -0.134595 -0.763753 
0.12937 -0.405008 -0.0530142 0.849716 0.512381 -0.12429 
-0.225684 -0.466641 -0.108923 -0.819665 -0.566517 -0.0848981 
-0.135174 -0.424263 0.0945365 -0.249147 0.749877 0.61287 
0.0398339 -0.497922 0.0400825 0.0822876 -0.996181 0.0291936 
0.00872761 -0.0720532 0.163209 -0.106959 -0.906678 0.408037 
0.0512086 0.404349 -0.0808301 0.00230123 0.969749 -0.244095 
0.017924 -0.304189 0.156422 -0.180383 -0.360294 0.915232 
0.21324 -0.00553954 -0.0993084 0.683478 -0.634356 -0.361179 
0.232036 0.0850332 -0.150646 0.792373 -0.198146 -0.57696 
-0.0279215 0.22476 0.227762 -0.23345 0.101249 0.967083 
-0.161616 0.0102805 -0.0719941 -0.666318 -0.739257 -0.0975703 
0.150666 -0.0544877 -0.0939604 0.433298 -0.819341 -0.375411 
0.0599903 -0.487368 0.0593987 0.705 -0.620325 0.343762 
0.27429 0.246081 0.055966 0.764498 0.274351 0.58333 
-0.265277 -0.240604 -0.255801 -0.674948 -0.381517 -0.631578 
0.155705 -0.0608326 -0.0733306 0.478293 -0.808615 -0.342604 
0.0898124 -0.327012 0.121706 0.427043 -0.659368 0.618764 
-0.0655733 -0.411416 -0.256878 0.267853 -0.507151 -0.819178 
-0.285369 -0.0748006 -0.204571 -0.890147 0.43077 0.148575 
-0.114475 -0.149734 -0.127338 0.205181 0.976889 -0.0599093 
0.000716067 -0.352473 0.129242 -0.146182 -0.464268 0.873548 
0.200618 0.290621 0.148026 0.656954 0.495384 0.568337 
0.0596283 -0.498479 -0.0149892 0.0225735 -0.999341 0.0284243 
0.100148 0.0735503 -0.243018 0.291003 -0.305251 -0.906719 
0.166595 -0.049528 -0.0853077 0.490702 -0.80149 -0.341798 
0.0181087 -0.179756 0.157591 -0.473568 0.278132 0.835689 
-0.0965082 -0.188947 0.00752711 -0.155022 0.845103 0.511633 
0.0556678 -0.300959 0.157097 0.17096 -0.48404 0.858183 
-0.201056 -0.0482499 -0.16468 0.474943 -0.559714 0.67908 
-0.0867421 -0.292197 0.0789387 -0.6693 -0.0178694 0.742778 
-0.0569268 -0.371245 0.0916837 -0.646068 -0.201166 0.736294 
0.288326 0.230331 -0.0456187 0.90516 -0.324618 -0.274425 
-0.0716865 0.373761 -0.0807095 -0.416921 0.873713 -0.250603 
0.159537 0.433238 -0.0463518 -0.578672 0.789333 -0.205164 
0.157248 -0.0788829 0.0727256 0.738672 -0.574712 0.352235 
-0.0458805 -0.167335 -0.0881686 0.356391 0.930163 -0.0882118 
0.0622112 -0.496852 0.0169328 0.130223 -0.986808 0.0961885 
0.0993785 0.269495 0.214627 0.266153 0.231263 0.935778 
-0.0800357 0.260861 0.200087 -0.463392 0.285328 0.838961 
0.0295167 0.233324 0.232163 0.028726 0.133051 0.990693 
0.214312 0.0925746 -0.174692 0.726462 -0.186643 -0.661375 
-0.0117745 0.139456 -0.262542 -0.188993 -0.0499823 -0.980706 
-0.213267 -0.483927 -0.0972475 -0.68301 -0.729689 -0.0324409 
-0.0706391 0.159029 -0.245519 -0.383035 0.0300334 -0.923246 
-0.199065 -0.02419 -0.226228 0.567427 0.170758 -0.805523 
-0.171321 0.0289471 0.0698964 -0.879614 -0.431192 0.200882 
-0.204239 0.284105 -0.00938548 -0.59677 -0.107431 0.795188 
-0.238102 0.200782 -0.0159252 -0.136573 0.298861 0.944473 
0.0556728 -0.452538 0.0848854 0.898615 -0.0423748 0.436687 
0.0977935 -0.225619 -0.0847177 0.518169 0.262443 -0.814018 
-0.257928 -0.0376145 -0.219337 -0.717929 0.638424 -0.277475 
-0.267299 -0.0930153 -0.17857 -0.317165 -0.0713509 0.945683 
0.0887611 0.405035 -0.0719635 0.0426247 0.964777 -0.259592 
-0.123811 0.181143 -0.215765 -0.531162 0.0983195 -0.841547 
-0.251599 0.142287 -0.122098 -0.798863 -0.431488 -0.41909 
0.2446 0.1972 -0.138486 0.849782 0.131711 -0.510415 
0.0049412 0.352454 -0.180592 -0.114951 0.763083 -0.635996 
0.308692 0.292942 0.0158153 0.826222 -0.021202 0.562946 
0.283648 0.199466 -0.0299906 0.983232 -0.121208 -0.136248 
0.0195155 0.159468 -0.267096 -0.0529703 0.0122748 -0.998521 
-0.186719 -0.146255 -0.103385 -0.270752 0.939313 0.210676 
-0.24171 -0.0409029 -0.157821 -0.468965 -0.135246 0.8728 
-0.214011 0.0706223 -0.0684771 -0.775638 -0.625458 -0.0847815 
-0.0394215 0.291026 0.204338 -0.284883 0.457477 0.842352 
-0.136834 -0.009551 -0.0802446 -0.636718 -0.753745 -0.162661 
-0.132668 0.125843 -0.209705 -0.547071 -0.116927 -0.82888 
-0.18785 -0.272013 -0.285661 -0.226531 -0.12111 -0.966445 
0.109846 -0.499017 -0.0604664 0.00183563 -0.999833 0.01819 
0.0956453 -0.0926568 -0.0724673 0.2848 -0.681599 -0.674027 
-0.250411 -0.408245 -0.0158556 -0.825119 -0.467948 0.316548 
0.00217172 0.193979 -0.263119 -0.134149 0.123762 -0.983202 
0.0304333 -0.20716 0.169901 -0.313193 0.144279 0.938666 
0.0747717 -0.359069 -0.103264 0.568352 0.00919324 -0.822734 
-0.200499 0.304416 -0.00257534 -0.535034 -0.0221787 0.844539 
-0.161726 0.0100633 -0.18716 0.825665 -0.261728 -0.499776 
0.0344531 -0.17555 0.163662 -0.303788 0.299135 0.904561 
0.104538 0.378034 -0.130179 0.175059 0.817483 -0.548704 
0.0613542 -0.366448 0.103316 0.491988 -0.509818 0.705715 
0.301831 0.318428 -0.0784946 0.808162 -0.156086 -0.567901 
-0.042432 0.122516 -0.253562 -0.285304 -0.125476 -0.950188 
0.192374 0.19066 -0.201329 0.637448 0.152216 -0.755308 
-0.292987 -0.0936906 -0.203897 -0.906838 0.32249 0.271377 
-0.117194 0.144995 0.160052 -0.388637 -0.245057 0.888205 
0.186794 0.245707 -0.187719 0.613107 0.321224 -0.721745 
0.059883 -0.0724809 0.162568 0.118122 -0.854615 0.505648 
-0.254246 -0.191909 -0.0669395 -0.686997 0.666227 0.290131 
-0.170918 -0.00482203 -0.195077 0.821267 -0.186132 -0.539328 
0.0111662 0.178852 -0.266122 -0.0908466 0.0746211 -0.993065 
-0.175035 0.341058 -0.0614548 0.0959829 0.977971 -0.185364 
-0.142192 -0.496459 0.0514227 -0.0671773 -0.997663 0.0124943 
-0.0738009 -0.248819 -0.280268 0.281115 0.38904 -0.877281 
0.0291834 -0.484518 0.129862 0.697313 -0.501152 0.512446 
0.0154439 0.045346 0.274255 0.215397 -0.357497 0.908735 
0.0881908 0.327308 0.18817 0.168789 0.606976 0.776589 
0.0568445 -0.48934 -0.15511 0.656291 -0.595055 -0.463887 
-0.148367 -0.434801 0.100198 -0.424515 0.601874 0.676413 
-0.0241568 -0.321037 0.133711 -0.497138 -0.277756 0.822013 
0.0649094 -0.332989 -0.114017 0.630689 -0.159352 -0.759499 
-0.218906 -0.137842 -0.259727 0.868872 0.250594 -0.426923 
-0.0371041 -0.18065 -0.17079 0.477156 0.855665 -0.200397 
-0.140665 0.343686 0.0199434 -0.567508 0.79678 0.207549 
-0.0191391 0.404802 0.0172425 -0.24551 0.9674 0.0621461 
-0.15082 -0.318203 0.0642408 0.0474249 0.158876 0.986159 
0.247436 0.0341694 -0.0881298 0.825012 -0.45719 -0.332164 
0.171247 -0.259722 0.00581719 0.963071 -0.181237 -0.199118 
0.211119 0.0744112 0.200203 0.702564 -0.059823 0.709101 
0.0466697 -0.0476824 -0.161051 0.00982396 -0.849935 -0.526796 
0.00068649 -0.400039 -0.219076 0.688545 -0.474827 -0.548129 
0.17218 -0.264014 0.0566157 0.954122 -0.271307 0.126662 
-0.0909076 -0.19785 0.023078 -0.30719 0.780917 0.543877 
-0.0115967 -0.417605 -0.218167 0.634269 -0.507936 -0.582841 
0.2297 0.460656 0.016665 0.208884 0.0456148 0.976876 
-0.203678 0.008301 -0.213312 -0.0677662 0.574748 -0.81552 
0.219718 0.0442194 0.178987 0.766253 -0.337777 0.546592 
0.0180022 0.120678 -0.26497 -0.0677788 -0.136332 -0.988342 
0.0387571 -0.497084 -0.149657 0.172917 -0.97534 -0.137153 
-0.305964 0.341382 -0.0658697 -0.644596 0.612585 -0.457423 
-0.2262 0.00908388 -0.14688 -0.831939 0.0960523 0.546491 
-0.23501 -0.452959 -0.102389 -0.857577 -0.50724 -0.0852609 
0.252096 0.0653795 0.136213 0.873691 -0.269556 0.404974 
-0.0721898 -0.159749 -0.108444 0.340472 0.937712 -0.0690972 
0.202686 0.47172 -0.0182063 -0.577184 0.813436 -0.071979 
-0.110052 -0.366944 0.0666684 0.0821238 0.132792 0.987736 
0.0154439 0.045346 0.274255 0.215397 -0.357497 0.908735 
-0.0366048 0.131814 0.253152 -0.80028 0.329576 0.50093 
0.0771899 0.0735268 0.283094 0.113906 -0.179895 0.977069 
-0.169093 -0.366087 0.0680403 -0.172241 -0.00673364 0.985032 
0.187245 0.0569986 0.219438 0.652428 -0.161309 0.740484 
0.253755 0.315815 0.0159392 0.0772693 0.481669 0.87294 
0.264458 0.0862333 0.118023 0.924167 -0.139377 0.355654 
-0.0366048 0.131814 0.253152 -0.80028 0.329576 0.50093 
0.0258588 0.0967616 0.287737 -0.103447 -0.341416 0.934202 
0.166842 -0.18153 0.0644075 0.946114 0.27162 0.176327 
0.165872 0.432013 -0.0632629 -0.540012 0.770911 -0.337763 
0.0382822 0.294313 0.213776 0.00905402 0.437567 0.89914 
0.0245133 0.285697 0.217543 -0.0233704 0.400686 0.915917 
0.241679 0.0671349 -0.128634 0.822011 -0.270685 -0.501026 
-0.30669 -0.154233 -0.214987 -0.99725 0.0210031 0.0710782 
0.11118 0.380312 0.115724 0.293775 0.850654 0.435987 
-0.104261 -0.370183 -0.282217 -0.0106608 -0.32257 -0.946485 
-0.0859635 -0.451041 0.110394 -0.0317353 0.126734 0.991429 
-0.176199 0.215551 0.126391 -0.849166 0.180361 0.496374 
0.0633882 -0.212832 0.175202 0.0412802 0.0816575 0.995805 
-0.143391 0.217812 0.164855 -0.654561 0.0923838 0.750343 
0.217639 0.187848 -0.177391 0.738566 0.128416 -0.661838 
-0.0274933 0.149969 0.252801 -0.721239 0.533746 0.441508 
0.131321 -0.344461 0.00946143 0.891557 -0.448657 0.0619107 
-0.152343 0.183166 0.157142 -0.597973 -0.0927428 0.796132 
0.269285 0.4989 -0.0153435 0.142359 0.988122 0.0578662 
-0.209483 -0.0833379 -0.191173 0.761338 -0.500038 0.412707 
0.018025 -0.328089 -0.233159 0.819433 -0.0544687 -0.570581 
0.269285 0.4989 -0.0153435 0.142359 0.988122 0.0578662 
0.141616 0.171857 -0.236896 0.448942 0.0633462 -0.891313 
0.164485 -0.485972 -0.0493208 0.831334 -0.494978 0.252745 
-0.175487 0.0995726 -0.190427 0.180639 0.156361 -0.971041 
0.133665 -0.337054 0.0261123 0.832018 -0.540448 0.125149 
0.0361445 -0.411388 0.105663 0.572871 0.127291 0.809701 
-0.204239 0.284105 -0.00938548 -0.59677 -0.107431 0.795188 
-0.0159365 -0.407631 -0.230662 0.586677 -0.493655 -0.641962 
-0.177117 -0.139883 -0.139294 -0.173121 0.982775 -0.064664 
0.0621006 0.0652524 0.281993 -0.0649632 -0.303581 0.950589 
0.157267 -0.272598 -0.0268758 0.876816 -0.198277 -0.438042 
0.139544 -0.0236114 -0.15918 0.404462 -0.723849 -0.558975 
0.0442267 -0.137328 -0.0585726 -0.203727 0.0586302 -0.977271 
-0.142931 0.0185253 -0.164919 0.320896 -0.707381 -0.629792 
0.147929 -0.22663 -0.0440295 0.761124 0.14871 -0.631329 
0.325692 0.400122 -0.0276137 0.998712 0.0422419 -0.0280951 
-0.249344 0.325426 -0.0199902 -0.221848 -0.0079822 0.975049 
0.0194114 -0.0124139 -0.20096 -0.130886 -0.680607 -0.720862 
0.123927 -0.213688 0.153285 0.626404 0.119546 0.770277 
-0.235393 0.121497 0.0167888 -0.544494 -0.0505982 0.837237 
-0.232483 -0.453102 -0.120639 -0.855632 -0.496117 -0.14752 
0.285535 0.156035 0.0298516 0.996329 0.0578798 0.0630828 
0.221533 0.030203 0.165163 0.769328 -0.440056 0.463125 
0.0898447 0.0594103 0.277865 0.175591 -0.289515 0.94093 
-0.00516554 -0.497689 -0.0938022 -0.0582342 -0.997985 0.0252008 
0.130263 0.123961 0.235795 0.518751 0.680556 0.517437 
0.151229 0.300131 0.181926 0.44998 0.445865 0.773772 
0.155623 0.103701 0.235181 0.554078 0.510481 0.657576 
0.0752385 -0.432953 0.0556629 0.795274 -0.187909 0.576394 
0.0881908 0.327308 0.18817 0.168789 0.606976 0.776589 
-0.212203 -0.307388 0.0513879 -0.419027 0.132288 0.898285 
-0.149845 -0.220369 0.0273222 -0.055348 0.572601 0.817964 
0.0820434 -0.344314 0.108133 0.463018 -0.651874 0.600563 
-0.258414 0.210417 -0.14521 -0.636025 -0.0768185 -0.767835 
-0.23501 -0.452959 -0.102389 -0.857577 -0.50724 -0.0852609 
-0.031724 -0.337126 -0.272944 0.46811 -0.153338 -0.870264 
0.114318 0.411397 -0.0454839 -0.135735 0.969846 -0.202422 
-0.0892555 -0.0276035 0.168627 -0.586651 -0.641643 0.494099 
-0.149234 0.0212329 0.123439 -0.835826 -0.332256 0.437038 
-0.111302 -0.0436234 -0.0160109 -0.601147 -0.78572 -0.145833 
-0.21649 0.0912581 0.021669 -0.741096 -0.460702 0.488396 
0.178667 0.00356043 -0.157652 0.54628 -0.61379 -0.569948 
0.0402803 -0.326545 0.143977 0.160963 -0.558178 0.813958 
-0.000244974 -0.0522202 -0.144098 -0.190413 -0.848568 -0.493635 
-0.0389276 0.112911 0.258651 -0.755879 0.214606 0.618539 
-0.131227 0.0636624 0.15158 -0.611134 0.0442546 0.790289 
-0.0119796 0.405071 0.0326758 -0.214133 0.971829 0.0984703 
-0.0781526 0.289605 -0.205058 -0.433139 0.514433 -0.740101 
-0.0449465 0.135434 0.233866 -0.817374 0.34908 0.458305 
0.0209566 0.410048 0.0374857 -0.110107 0.987395 0.113698 
0.261083 0.119346 0.130755 0.904761 0.0128456 0.425725 
0.0678517 0.0202853 -0.225825 0.12869 -0.515475 -0.847186 
0.281686 0.0914666 -0.0227657 0.983379 -0.156169 -0.0926069 
0.269466 0.311966 0.0198933 -0.0953249 0.412482 0.905964 
0.0735618 0.414328 0.00307866 0.0268636 0.998449 0.0487564 
-0.0845053 -0.264587 -0.28922 0.202918 0.25725 -0.9448 
-0.023753 -0.18771 0.117413 -0.809174 0.324349 0.489934 
0.0803264 -0.404179 0.0618709 0.749628 -0.307402 0.586142 
0.00205732 0.15838 0.276778 -0.394374 0.672266 0.626521 
0.264366 0.285189 -0.108565 0.626235 -0.149361 -0.765194 
0.132442 -0.308504 0.100455 0.675617 -0.607763 0.417332 
-0.0307002 -0.49809 0.133035 -0.152223 -0.92476 0.34878 
-0.00511686 -0.105179 -0.0458039 -0.489975 -0.635777 -0.596416 
0.18739 0.306793 0.147891 0.620164 0.55751 0.551887 
0.157759 0.361714 0.102414 0.556011 0.74907 0.360202 
-0.139131 -0.00175368 -0.119014 -0.373113 -0.918225 -0.132849 
0.0374095 -0.346174 0.130457 0.222728 -0.564782 0.794616 
-0.110535 0.325098 -0.144641 -0.48937 0.731928 -0.474129 
-0.0797994 -0.157003 -0.069821 0.138144 0.973901 0.180094 
0.112808 -0.176295 -0.0577934 0.492596 0.307917 -0.813964 
0.164901 0.130767 0.199816 0.419982 0.508748 0.751526 
0.174568 -0.241424 0.0115664 0.981273 -0.055333 -0.184505 
0.194366 0.0936946 0.212116 0.564202 0.290177 0.772964 
0.103183 0.163098 0.216876 0.533202 0.371302 0.760152 
-0.289723 -0.245071 -0.207059 -0.922275 -0.293873 -0.251091 
-0.285548 -0.096135 -0.254226 -0.776103 0.416971 -0.473074 
-0.0277922 0.162201 0.235786 -0.640618 0.421472 0.641849 
-0.195509 -0.261149 0.0456781 -0.264148 0.373636 0.889169 
-0.166138 -0.495979 -0.0163366 -0.0963392 -0.99425 0.0467529 
-0.149913 0.16428 0.155444 -0.541112 -0.274425 0.794914 
0.219025 0.476303 0.0114124 -0.276954 0.678714 0.680179 
-0.209483 -0.0833379 -0.191173 0.761338 -0.500038 0.412707 
-0.254747 0.357312 -0.0510108 0.0856845 0.995572 -0.0386472 
-0.00880205 0.0459353 0.276114 -0.110727 -0.291127 0.950255 
-0.15787 0.278852 0.112354 -0.781268 0.483007 0.39538 
0.0221584 -0.379287 0.113974 0.219555 -0.323117 0.920539 
0.176479 0.277197 0.177791 0.524698 0.339787 0.780536 
0.077688 0.12543 -0.260916 0.234135 -0.092476 -0.967796 
0.210884 0.383132 0.0104803 0.412206 -0.0619997 0.908979 
-0.154985 0.0909047 -0.192241 -0.185278 -0.0596391 -0.980875 
-0.169093 -0.366087 0.0680403 -0.172241 -0.00673364 0.985032 
-0.26897 0.287947 -0.0261521 0.0402056 -0.0237685 0.998909 
0.25149 0.0118225 -0.0187866 0.832472 -0.543973 -0.105276 
-0.14251 0.343484 -0.0641094 -0.280721 0.929699 -0.238445 
-0.0214911 -0.0863676 -0.0630294 -0.326931 -0.861603 -0.388275 
-0.000825592 -0.261441 -0.239359 0.711799 0.373339 -0.594946 
-0.222437 0.34588 -0.0212486 -0.0191486 0.756428 0.653797 
0.300484 0.245509 -0.00697983 0.934193 -0.356584 -0.0114331 
-0.101824 -0.0537022 -0.000888922 -0.592633 -0.796101 -0.122516 
-0.152339 -0.205918 -0.272698 0.121567 0.532705 -0.837524 
-0.00846581 0.00247137 -0.207005 -0.226483 -0.629809 -0.742998 
-0.190032 -0.276389 0.0526156 -0.219439 0.289404 0.931714 
0.103057 0.351067 0.162295 0.234593 0.720001 0.653119 
-0.323212 0.25785 -0.0390385 -0.949029 -0.0755595 0.305999 
0.283256 0.436127 0.00187856 0.0836025 -0.0743058 0.993725 
-0.0995039 0.332463 0.130045 -0.548472 0.689365 0.473238 
0.128194 -0.43033 -0.10426 0.41257 0.637669 -0.650511 
0.13119 -0.0152821 -0.174073 0.385501 -0.685191 -0.617983 
0.174979 0.351105 0.0945819 0.636785 0.704669 0.312964 
-0.0929137 -0.0637692 0.0404563 -0.564482 -0.825424 0.00588943 
0.142325 0.0567661 -0.219015 0.446373 -0.349666 -0.823702 
0.140413 -0.4922 -0.104711 0.398605 -0.746836 -0.532306 
-0.220473 -0.391213 0.0384067 -0.623388 -0.279108 0.730401 
-0.259997 -0.0770641 -0.266116 -0.381277 0.535992 -0.75322 
0.183353 0.107603 0.211347 0.448593 0.52395 0.724045 
0.118329 0.333689 -0.174943 0.344736 0.637664 -0.68887 
-0.136545 -0.494592 -0.0442528 -0.0425566 -0.999087 0.00382002 
0.302177 0.465966 -0.041381 0.69723 0.530629 -0.481979 
0.160049 0.204021 -0.222174 0.512778 0.193428 -0.836448 
-0.214392 0.226555 -0.16654 -0.280402 0.177908 -0.943252 
-0.0897904 -0.396827 -0.270499 0.0970827 -0.442959 -0.89127 
0.0336596 -0.0490961 0.213185 -0.0728965 -0.810841 0.580709 
-0.0990015 -0.396393 0.0763902 -0.146973 0.541393 0.827824 
0.223913 0.398915 0.00655908 0.337025 -0.114779 0.934473 
0.123408 -0.371866 -0.0203383 0.998598 -0.0486322 -0.0209073 
0.00278977 0.314105 -0.216917 -0.086407 0.597265 -0.797376 
-0.298446 0.324906 -0.0260808 -0.239073 0.153717 0.958757 
0.0330122 -0.274089 0.168916 -0.119984 -0.229018 0.965999 
-0.0717343 -0.338144 0.0860885 -0.719653 -0.176533 0.671517 
-0.197036 0.336952 -0.0887442 0.170276 0.891387 -0.420042 
0.0141688 -0.0358085 -0.174426 -0.145601 -0.781952 -0.606095 
0.238938 0.0342837 0.136474 0.820157 -0.426541 0.38132 
-0.222372 0.326761 -0.109234 0.0122134 0.764001 -0.6451 
-0.2336 -0.16281 -0.119912 -0.491509 0.859457 0.140544 
-0.164071 0.16071 0.141121 -0.640901 -0.211423 0.737933 
0.180454 0.0575732 -0.193912 0.596718 -0.314534 -0.738238 
0.174158 0.331169 0.133429 0.594016 0.667237 0.449377 
-0.103199 -0.0267771 0.151656 -0.636817 -0.635381 0.436754 
-0.291355 -0.272694 -0.161876 -0.980222 -0.15227 -0.126408 
-0.0532122 -0.170579 -0.006644 -0.404382 0.902766 0.14659 
-0.0595501 0.375227 -0.0950141 -0.399872 0.871003 -0.285405 
0.264714 0.0910013 -0.0957537 0.915669 -0.167311 -0.365456 
0.258416 0.172306 -0.11822 0.89627 0.0670973 -0.438404 
-0.00777715 0.218202 0.232034 -0.146437 0.100378 0.984114 
0.0510449 0.265254 0.22436 0.0843555 0.277658 0.956969 
0.101573 0.408221 -0.0569972 -0.0238486 0.975192 -0.220073 
0.0582865 -0.439073 -0.139262 0.712174 0.440564 -0.546546 
-0.0617689 -0.467893 -0.217255 0.387955 -0.520279 -0.760789 
0.118521 0.0733598 -0.236419 0.363048 -0.295367 -0.883716 
0.141752 -0.325736 0.00587119 0.85863 -0.510901 -0.0416481 
-0.0262953 -0.120855 0.0326388 -0.960091 -0.279394 -0.0128165 
-0.191961 0.0587106 0.03681 -0.881029 -0.429389 0.198525 
0.146616 -0.208452 -0.0400016 0.755169 0.218425 -0.61807 
-0.173774 0.02363 -0.0933503 -0.712555 -0.696953 -0.0807615 
-0.0756185 -0.192956 -0.239081 0.356993 0.717573 -0.598034 
0.0377567 -0.4189 -0.152034 0.851043 0.290693 -0.43729 
0.126124 -0.356817 -0.00551262 0.95666 -0.291021 0.0104024 
0.234064 0.155497 0.161104 0.577151 0.181887 0.796124 
-0.0335564 -0.0942153 -0.030638 -0.586483 -0.764646 -0.267123 
-0.109425 0.244159 0.186099 -0.558478 0.203634 0.804137 
0.187428 0.218228 0.178652 0.394982 -0.154338 0.905632 
0.322214 0.344831 -0.00441819 0.904789 -0.0235256 0.42521 
-0.190608 0.0975277 0.0913764 -0.88513 -0.217235 0.411525 
0.154213 -0.178889 0.10045 0.863192 0.273736 0.424225 
-0.206557 0.34705 -0.0314958 0.15191 0.964003 0.218223 
-0.0241989 -0.0274116 0.219475 -0.262063 -0.704693 0.659341 
0.00625335 -0.384425 -0.22483 0.714716 -0.396072 -0.576461 
-0.149234 0.0212329 0.123439 -0.835826 -0.332256 0.437038 
0.0899222 -0.349817 -0.0918856 0.647263 0.0300178 -0.761675 
0.110977 0.393636 -0.101326 0.0407578 0.904949 -0.423565 
0.11768 0.322387 -0.185193 0.358523 0.599078 -0.715938 
-0.219275 0.131556 -0.171217 -0.495327 0.589307 -0.638254 
0.246606 0.20848 0.136441 0.81465 0.192077 0.547222 
0.161808 -0.193778 -0.00887192 0.88802 0.238906 -0.392868 
-0.054248 0.0327647 0.248441 -0.648125 -0.245562 0.720856 
0.319255 0.326249 -0.00071322 0.904291 -0.0617262 0.422431 
0.273954 0.0568592 0.0464228 0.946074 -0.311752 0.088062 
-0.0294375 0.0507757 0.270967 -0.441647 -0.1856 0.877781 
-0.131564 -0.161602 -0.0427779 0.0536438 0.921899 0.383698 
0.185094 -0.059872 0.0319396 0.662606 -0.747953 0.0389759 
-0.226919 0.25445 -0.0237809 -0.30649 0.0377658 0.951124 
-0.0416646 0.394519 0.0514406 -0.327883 0.933618 0.144394 
-0.190032 -0.276389 0.0526156 -0.219439 0.289404 0.931714 
0.15522 0.317705 -0.167673 0.440897 0.541754 -0.71562 
-0.189338 -0.0177713 -0.147292 0.361853 -0.588399 0.723083 
0.123689 -0.011132 0.224643 0.390722 -0.591596 0.705231 
-0.241053 0.0609365 -0.143202 -0.736132 -0.551973 0.391708 
-0.150375 0.318814 0.0631595 -0.747207 0.601999 0.281564 
-0.0399473 -0.295898 0.126008 -0.690319 -0.0689761 0.720209 
-0.15452 -0.178646 -0.0124041 -0.0553218 0.807596 0.587136 
0.168916 0.376509 0.0486374 0.637637 0.614122 0.465052 
0.078639 -0.498815 -0.0739445 -0.00510987 -0.999971 -0.00564766 
0.155362 0.0679003 -0.215861 0.501894 -0.297005 -0.812337 
0.21845 0.244132 0.156447 0.667227 0.25816 0.698686 
0.115372 -0.452449 0.00781318 0.665469 -0.0854985 0.741513 
0.0863837 -0.151362 -0.0610329 0.235359 0.21915 -0.946879 
0.238384 0.476336 0.0131747 0.0264278 0.373134 0.927401 
-0.0762346 0.383394 0.0178992 -0.441778 0.895357 0.056285 
0.184358 0.190176 0.174624 0.375906 0.0731088 0.923769 
0.0723339 0.0858134 -0.254435 0.191842 -0.277792 -0.941291 
0.291491 0.469187 0.000734432 0.441603 0.227549 0.867875 
0.163519 -0.165688 0.02552 0.953579 0.279294 -0.112618 
-0.0381854 -0.316234 0.124509 -0.641121 -0.181818 0.745591 
-0.280477 -0.257392 -0.220212 -0.86095 -0.327883 -0.388919 
0.160533 -0.291112 0.000812704 0.906328 -0.384337 -0.175654 
0.267081 0.0672401 -0.0718326 0.919197 -0.283446 -0.273379 
-0.212817 -0.477305 -0.143537 -0.766865 -0.601674 -0.223399 
-0.00221618 -0.281727 -0.250055 0.699893 0.217416 -0.680353 
0.0316154 -0.4554 0.131164 0.770003 0.133455 0.623927 
-0.117798 -0.497423 -0.0369943 -0.031748 -0.998342 0.0480194 
-0.20684 -0.487158 -0.128359 -0.631484 -0.768718 -0.10149 
0.198608 0.0467943 -0.17274 0.662404 -0.362664 -0.655512 
0.170691 -0.0726147 0.0434902 0.753518 -0.652858 0.0773715 
0.214333 -0.0136351 -0.0809335 0.689957 -0.658422 -0.300732 
0.200729 0.0932609 -0.188582 0.670671 -0.190311 -0.716926 
0.109485 0.414945 -0.0121747 -0.0960589 0.995347 0.00758761 
-0.0598943 -0.190472 0.045257 -0.627723 0.694749 0.351124 
-0.0919431 0.375947 -0.00744563 -0.46438 0.885573 -0.0105124 
0.0223962 -0.20422 -0.120355 0.530941 0.697323 -0.4815 
0.0892062 0.243487 -0.242409 0.293604 0.329485 -0.89735 
0.108226 -0.33513 0.0943175 0.579528 -0.671781 0.461366 
0.151718 -0.441401 -0.0346282 0.819574 0.414449 0.395639 
-0.159775 -0.49612 -0.0714193 0.0164764 -0.999445 0.0289616 
-0.29778 0.17827 -0.0431784 -0.877875 -0.472149 -0.0800708 
-0.0672158 -0.382425 0.0782142 -0.52084 0.00447983 0.853642 
-0.0325068 -0.475503 -0.201365 0.00711507 -0.361107 -0.932497 
0.271231 0.0498125 -0.0172383 0.927802 -0.363462 -0.0841423 
-0.272571 -0.176349 -0.157201 -0.591393 0.548729 0.59089 
-0.0364726 0.0177338 -0.209663 -0.282027 -0.586787 -0.75904 
0.12599 0.321956 0.180467 0.329157 0.584979 0.741252 
-0.153283 0.34371 -0.0138498 -0.341143 0.931082 0.129257 
0.19291 0.0768084 -0.190673 0.642183 -0.249769 -0.724718 
0.245234 0.160024 -0.142964 0.851324 0.0241615 -0.524083 
0.0510117 -0.409152 -0.120363 0.539554 0.281107 -0.793638 
0.234941 0.0211206 0.128622 0.794221 -0.498779 0.347035 
-0.14263 -0.449287 0.1116 -0.344604 0.191183 0.919074 
-0.217576 -0.181364 -0.281423 0.431739 0.305427 -0.848714 
-0.0771308 0.366281 -0.0967541 -0.420877 0.859747 -0.289306 
-0.0333885 0.397363 -0.048812 -0.31776 0.932456 -0.171911 
0.120151 0.392477 0.0815206 0.337037 0.873549 0.351167 
-0.229504 -0.109176 -0.187006 0.611789 -0.261683 0.746483 
0.0919767 0.41419 -0.0206444 -0.00594656 0.998473 -0.0549251 
0.0737875 0.0228021 0.256567 -0.0335262 -0.537205 0.842785 
-0.224555 0.0859739 -0.0778756 -0.78666 -0.601228 -0.140327 
-0.0589705 0.0536394 0.247606 -0.737078 -0.0334326 0.67498 
-0.321337 0.273627 -0.0655925 -0.94054 -0.0441517 -0.336801 
-0.186557 0.226624 0.0965246 -0.917098 0.249878 0.310632 
-0.235539 0.123419 -0.163057 -0.738411 0.595642 -0.316165 
-0.29262 -0.299405 -0.114865 -0.990541 -0.125239 -0.0560631 
-0.168498 0.0739741 0.115715 -0.750706 -0.174794 0.637093 
-0.0778197 -0.496907 0.0835666 -0.0575625 -0.995874 0.0701525 
-0.209504 -0.0720314 -0.237929 0.893071 -0.117237 -0.434373 
0.0185136 0.242827 -0.254205 -0.0229411 0.303882 -0.952433 
0.166446 -0.457592 -0.0738952 0.955832 0.260038 -0.136988 
-0.242286 0.217663 -0.156161 -0.492905 0.0277149 -0.869642 
0.237812 0.364473 -0.124727 0.290091 0.183827 -0.939178 
-0.246558 0.108194 -0.160318 -0.895651 0.427442 -0.122888 
0.0795071 -0.131974 0.147763 0.2355 0.405202 0.883375 
-0.273704 0.258765 -0.130835 -0.618983 0.134134 -0.773866 
-0.101018 -0.180668 -0.00782689 -0.0226853 0.881225 0.472153 
0.26445 0.0627502 0.101014 0.913584 -0.301317 0.273079 
-0.0404071 -0.490825 0.0177872 -0.267296 -0.909771 -0.317601 
-0.0100756 -0.483748 -0.0221762 0.0156098 -0.87493 -0.483998 
-0.21097 -0.485067 -0.0648553 -0.635605 -0.766948 0.0882966 
0.0956326 0.147463 0.241943 0.571993 0.653146 0.49621 
-0.241254 -0.439463 -0.112175 -0.872647 -0.472899 -0.121876 
-0.287278 -0.153101 -0.180597 -0.565854 0.237605 0.789527 
-0.295826 -0.232711 -0.176733 -0.99411 -0.0964069 0.0494993 
0.147817 -0.429784 -0.0446106 0.80523 0.564273 0.182211 
0.103466 -0.496862 -0.107268 0.0470748 -0.911401 -0.408818 
-0.118508 -0.338336 -0.290344 -0.0984418 -0.217069 -0.97118 
-0.0244892 -0.178397 -0.115819 0.350138 0.929079 -0.119229 
0.283256 0.436127 0.00187856 0.0836025 -0.0743058 0.993725 
0.22182 0.115753 0.18278 0.596222 0.270085 0.756024 
-0.205867 -0.0822465 -0.207571 0.924061 -0.381468 0.0243584 
-0.270077 -0.354712 -0.00907051 -0.891492 -0.207123 0.402917 
0.0425175 0.399709 -0.0975314 -0.0104665 0.953481 -0.301272 
-0.0151723 -0.137128 -0.014704 -0.864288 0.022397 -0.502498 
-0.0677756 0.380026 -0.0642224 -0.411378 0.886149 -0.213325 
-0.155993 0.0403903 0.122618 -0.821179 -0.203247 0.53325 
-0.21032 0.220441 -0.011128 -0.712422 0.222353 0.665593 
0.151229 0.300131 0.181926 0.44998 0.445865 0.773772 
-0.0293722 -0.103067 -0.0147984 -0.750889 -0.610666 -0.251501 
0.134196 -0.318977 -0.0403878 0.852285 -0.333044 -0.403352 
-0.117026 -0.166081 -0.0350238 0.0631263 0.90932 0.411281 
0.0124546 -0.367434 0.121549 0.0392972 -0.473491 0.879922 
-0.138639 -0.215421 -0.276573 0.0960367 0.483449 -0.870088 
0.0956277 -0.335562 0.107334 0.49689 -0.675045 0.545358 
-0.270954 0.184219 -0.123881 -0.785381 -0.304157 -0.539133 
0.232396 0.429013 0.00934273 0.334803 -0.202217 0.920334 
0.107993 0.404776 -0.0706635 -0.0288351 0.958027 -0.285223 
-0.257218 -0.411373 -0.103273 -0.885849 -0.452795 -0.101235 
-0.135784 -0.496397 -0.101153 0.0412059 -0.998749 0.0283157 
-0.0278642 0.252325 -0.244312 -0.241198 0.324836 -0.914497 
0.217355 0.18114 0.16534 0.380975 0.100173 0.919143 
-0.305265 -0.172794 -0.20523 -0.986642 -0.0203755 0.161624 
-0.0256457 -0.156881 0.0815278 -0.903511 0.357854 0.235813 
0.248589 0.00741855 0.0533856 0.818077 -0.565213 0.106225 
0.320684 0.395828 -0.0492918 0.93912 0.0553525 -0.339103 
0.298621 0.480909 -0.011437 0.735137 0.603716 0.308384 
-0.278094 -0.209033 -0.115717 -0.865282 0.483231 0.133319 
-0.0193953 -0.352892 0.122959 -0.362111 -0.383072 0.849783 
0.265958 0.458777 0.00676423 0.187905 -0.0958288 0.977501 
-0.187075 -0.219596 0.0236994 -0.179686 0.58509 0.790812 
-0.0217981 0.316626 0.193 -0.216225 0.583413 0.782864 
-0.222372 0.326761 -0.109234 0.0122134 0.764001 -0.6451 
0.0842122 0.329618 -0.193598 0.262207 0.63556 -0.726162 
-0.190624 -0.151993 -0.0870727 -0.253159 0.939826 0.22943 
-0.0600439 0.391144 0.0115149 -0.392247 0.919363 0.0302212 
-0.130997 -0.251846 0.0460662 -0.126366 0.381515 0.915684 
-0.0337572 0.374945 -0.125901 -0.333631 0.865514 -0.373598 
-0.0405299 0.383671 -0.0944505 -0.353023 0.891898 -0.282653 
-0.076176 -0.0673309 -0.0250936 -0.532258 -0.834169 -0.144441 
0.099696 -0.380594 0.0508115 0.766233 -0.398938 0.503722 
0.13163 -0.129431 0.107792 0.771388 0.269787 0.576347 
-0.0619252 -0.0738553 -0.0377218 -0.517826 -0.843647 -0.141835 
0.250809 0.44789 -0.0856295 0.14992 0.624103 -0.766825 
-0.0545113 -0.242079 0.102643 -0.768901 0.247048 0.58971 
0.192106 0.0442381 0.21124 0.664052 -0.291169 0.688662 
-0.199065 -0.02419 -0.226228 0.567427 0.170758 -0.805523 
-0.0872895 -0.15636 -0.136979 0.301291 0.951298 -0.0652348 
0.173245 0.203737 0.180084 0.390117 -0.0907809 0.916279 
0.0136011 -0.270716 0.164905 -0.33529 -0.144657 0.930943 
-0.0681107 0.0144017 -0.193391 -0.346059 -0.613819 -0.709556 
0.026745 0.404691 0.0717265 -0.0782994 0.968547 0.236189 
-0.0417711 0.140275 -0.255431 -0.27768 -0.0541674 -0.959145 
-0.150573 -0.368377 0.0695191 -0.0197781 0.0474715 0.998677 
-0.0420549 -0.48375 -0.0593508 -0.0285746 -0.996729 0.0755928 
-0.271129 0.225813 -0.135189 -0.678013 -0.043717 -0.733748 
0.225628 0.268146 0.133995 0.762633 0.41333 0.497543 
0.0702943 0.404969 -0.0759651 0.0442753 0.967512 -0.24892 
-0.246227 -0.127125 -0.284448 0.350253 0.188506 -0.91749 
-0.192662 -0.489134 -0.160885 -0.498819 -0.819371 -0.282508 
0.0942283 -0.484826 -0.122598 0.236461 -0.524551 -0.817883 
-0.143819 0.233668 0.160764 -0.681484 0.195314 0.705288 
0.1257 0.0240427 -0.210368 0.364999 -0.484992 -0.794706 
-0.0117745 0.139456 -0.262542 -0.188993 -0.0499823 -0.980706 
0.191251 -0.0320871 -0.0864429 0.578673 -0.748168 -0.324626 
0.0190364 0.179907 0.247692 -0.0981756 0.731936 0.674264 
-0.0256457 -0.156881 0.0815278 -0.903511 0.357854 0.235813 
0.181665 0.440269 -0.0686903 -0.51033 0.752862 -0.415646 
0.018025 -0.328089 -0.233159 0.819433 -0.0544687 -0.570581 
0.112428 -0.234105 -0.0766454 0.586376 0.160008 -0.794079 
-0.167606 -0.290767 0.059196 -0.033375 0.234925 0.97144 
-0.0655758 -0.264824 -0.284034 0.301306 0.285388 -0.909818 
-0.265976 -0.354381 -0.171626 -0.876558 -0.352486 -0.327717 
-0.067058 0.133129 0.204258 -0.75003 0.137897 0.646869 
-0.27106 0.137899 -0.0438841 -0.793366 -0.59392 -0.133527 
-0.21007 0.333938 -0.0981963 0.10835 0.840777 -0.530428 
-0.21097 -0.485067 -0.0648553 -0.635605 -0.766948 0.0882966 
0.104481 0.0869196 0.276227 0.394614 0.107111 0.912583 
0.28046 0.0803478 -0.011557 0.976821 -0.203428 -0.0666177 
-0.0462806 -0.180521 0.0544534 -0.742374 0.623995 0.243949 
0.090436 -0.11981 0.138603 0.372037 0.356484 0.857034 
0.167167 0.0419431 -0.196795 0.533048 -0.395807 -0.747795 
0.126619 -0.265245 -0.0680151 0.688213 -0.0225478 -0.725158 
-0.0265955 -0.455294 -0.205876 0.240537 -0.29738 -0.923963 
-0.216374 -0.137024 -0.220585 0.939673 0.339177 0.044422 
-0.142855 -0.00909878 0.0980027 -0.794435 -0.557834 0.240196 
0.0694136 0.411586 -0.0437511 0.0226303 0.985857 -0.166053 
-0.11216 -0.295703 0.0583155 -0.168331 0.063573 0.983678 
0.318082 0.430538 -0.00887002 0.785345 0.162858 0.597252 
-0.156882 0.0223561 0.108298 -0.854772 -0.378696 0.354899 
0.00463469 -0.0789336 0.146698 -0.169991 -0.866073 0.470127 
-0.0590287 0.311592 0.182752 -0.363159 0.567119 0.739251 
0.0618566 0.39261 0.107642 0.0406968 0.906164 0.420964 
0.136156 -0.302367 -0.0477438 0.811929 -0.271518 -0.516769 
0.2446 0.1972 -0.138486 0.849782 0.131711 -0.510415 
-0.146527 -0.0101035 0.0808756 -0.796312 -0.581024 0.168223 
0.150211 0.277169 -0.198432 0.477538 0.435445 -0.763115 
-0.0360761 -0.398251 0.105075 -0.511835 0.291746 0.808028 
-0.297066 0.304092 -0.024639 -0.11784 0.0367579 0.992352 
0.0498229 -0.0672561 0.17672 0.0618666 -0.9168 0.394525 
0.0649438 0.409863 0.0517107 0.0297153 0.983608 0.177854 
-0.151164 -0.166719 -0.0311661 -0.0243236 0.883865 0.46711 
-0.0780482 0.182631 0.204007 -0.510554 -0.206102 0.834779 
-0.179703 -0.476355 0.0613296 -0.828716 -0.493116 0.264702 
0.16611 0.271543 -0.190967 0.528643 0.409529 -0.74352 
0.0823239 -0.401361 -0.10571 0.488574 0.31396 -0.814079 
0.140972 -0.128019 0.0923452 0.851387 0.236103 0.468397 
-0.015655 0.284109 -0.2333 -0.184378 0.468488 -0.864016 
-0.120756 0.254346 -0.197376 -0.534248 0.369603 -0.760245 
-0.151374 0.324325 0.047609 -0.728729 0.627032 0.275292 
-0.053834 -0.262237 0.109784 -0.761299 0.125069 0.636225 
0.265383 0.0475946 -0.0500203 0.903779 -0.382928 -0.191179 
0.148849 0.3606 -0.137456 0.170468 0.61181 -0.772418 
-0.047879 0.395762 -0.0189187 -0.360456 0.931192 -0.0543359 
-0.135018 -0.149572 -0.0795717 0.127418 0.95209 0.278011 
-0.105071 0.368647 0.00163088 -0.493337 0.86949 0.024608 
-0.183967 0.307603 0.00978322 -0.685554 0.245969 0.685212 
0.0883882 -0.134356 -0.0576798 0.25709 0.00497414 -0.966375 
-0.0966431 0.00970235 0.191897 -0.73394 -0.291464 0.613499 
0.250809 0.44789 -0.0856295 0.14992 0.624103 -0.766825 
-0.29262 -0.299405 -0.114865 -0.990541 -0.125239 -0.0560631 
-0.325311 0.27633 -0.0491707 -0.999189 -0.0374324 0.0148334 
0.0692192 0.0408144 -0.236805 0.150467 -0.450258 -0.880129 
0.245566 0.394523 0.000934289 0.142928 -0.0428092 0.988807 
-0.0892555 -0.0276035 0.168627 -0.586651 -0.641643 0.494099 
0.0131525 -0.0918221 -0.0735422 -0.235397 -0.811117 -0.535422 
0.104855 0.0531224 0.271954 0.283778 -0.314977 0.905682 
-0.144142 -0.484139 0.100938 -0.339619 -0.635269 0.693609 
0.140972 -0.128019 0.0923452 0.851387 0.236103 0.468397 
0.290699 0.292357 -0.0850549 0.762478 -0.210418 -0.611843 
-0.247446 0.183632 -0.0100675 -0.0207902 0.375751 0.926488 
-0.304989 -0.151714 -0.234573 -0.976411 -0.000119247 -0.215921 
-0.260741 0.269933 -0.0265047 0.037242 0.00534352 0.999292 
0.152178 0.00805908 -0.183276 0.465771 -0.582626 -0.666036 
0.0870303 0.0551983 -0.239785 0.23382 -0.390299 -0.890503 
0.202303 0.339651 0.04949 0.725533 0.637324 0.259655 
0.147926 0.0445308 0.24738 0.529579 -0.302613 0.792446 
-0.0553877 0.106586 0.235931 -0.842789 0.2955 0.449873 
0.0375929 -0.389575 0.105472 0.439463 -0.201859 0.875286 
0.161489 0.115291 -0.223445 0.53139 -0.126911 -0.837567 
-0.0804154 -0.424558 0.100652 -0.00594613 0.5914 0.806356 
-0.247882 0.111547 -0.0590888 -0.778691 -0.611213 -0.141633 
-0.0145416 -0.495439 -0.0785983 -0.18707 -0.93484 0.301792 
-0.218731 0.313323 -0.123572 -0.0422448 0.677589 -0.734227 
0.28279 0.121001 0.061712 0.982845 -0.0256861 0.182634 
-0.148367 -0.434801 0.100198 -0.424515 0.601874 0.676413 
0.0771899 0.0735268 0.283094 0.113906 -0.179895 0.977069 
-0.00198539 0.0809442 0.282224 -0.0968825 -0.022042 0.995052 
0.037723 -0.028138 0.23509 -0.131101 -0.613912 0.778411 
-0.119191 0.0138047 0.165205 -0.77997 -0.228974 0.582424 
0.0284049 -0.196072 -0.103082 0.396318 0.73616 -0.548635 
-0.0800357 0.260861 0.200087 -0.463392 0.285328 0.838961 
-0.213267 -0.483927 -0.0972475 -0.68301 -0.729689 -0.0324409 
-0.218699 -0.0742248 -0.251727 0.754526 0.0677148 -0.652767 
-0.110306 -0.160143 -0.0529959 0.0926443 0.945377 0.312537 
-0.0974451 -0.43002 -0.252193 0.0812612 -0.526384 -0.846355 
0.29269 0.367376 -0.0933284 0.685186 0.0666447 -0.725313 
-0.0453357 -0.430597 -0.234992 0.411624 -0.542913 -0.731991 
-0.0802751 -0.0657235 0.0930578 -0.499503 -0.846767 0.182979 
-0.103199 -0.0267771 0.151656 -0.636817 -0.635381 0.436754 
-0.0763104 0.100446 0.201554 -0.846206 0.096008 0.524136 
-0.0111016 0.104625 -0.258189 -0.183967 -0.206539 -0.960988 
-0.146094 -0.49605 0.0150984 -0.0304027 -0.999454 -0.0129406 
0.0730769 0.397156 0.0960547 0.0798435 0.922343 0.378031 
-0.00542099 0.0447699 -0.236764 -0.195923 -0.483456 -0.853162 
-0.0758015 0.0298932 -0.201823 -0.371363 -0.551566 -0.746903 
-0.239323 0.345539 -0.0217005 -0.0704661 0.617546 0.783372 
0.0649094 -0.332989 -0.114017 0.630689 -0.159352 -0.759499 
0.203112 0.238272 -0.176348 0.662404 0.293436 -0.689286 
-0.0969425 -0.218539 0.0432566 -0.425622 0.58488 0.690479 
0.252096 0.0653795 0.136213 0.873691 -0.269556 0.404974 
-0.15912 0.244976 -0.176697 -0.40234 0.365174 -0.839506 
-0.0268788 -0.206612 0.12393 -0.786506 0.291242 0.544598 
0.178667 0.00356043 -0.157652 0.54628 -0.61379 -0.569948 
-0.229167 -0.0612821 -0.257104 0.364912 0.360743 -0.858315 
0.0127324 -0.402055 -0.199205 0.765913 -0.435436 -0.473047 
0.0775824 0.406123 0.0661425 0.0810739 0.969394 0.231739 
-0.164502 -0.303306 -0.287543 -0.267849 -0.160263 -0.950038 
-0.120568 -0.167186 -0.220795 0.14146 0.885135 -0.443312 
-0.210857 0.0343577 -0.189969 -0.612677 0.147205 -0.776504 
0.195259 0.0754563 0.214478 0.643429 0.0302607 0.764907 
-0.287278 -0.153101 -0.180597 -0.565854 0.237605 0.789527 
-0.237234 0.317675 -0.118005 -0.108625 0.662565 -0.741086 
0.204186 0.398252 0.0160715 0.468741 -0.140053 0.872162 
0.304304 0.272609 0.019585 0.873231 -0.0945508 0.478046 
0.157577 0.00502102 0.216028 0.508854 -0.556589 0.656717 
-0.214763 0.2847 -0.145197 -0.125547 0.50826 -0.852004 
-0.122914 -0.350014 0.0655664 0.0614931 0.0826987 0.994676 
-0.19187 0.116755 0.0964816 -0.880419 -0.165809 0.444263 
-0.277215 -0.316785 -0.177678 -0.910829 -0.282582 -0.300896 
-0.30668 0.287722 -0.0247767 -0.282624 0.051214 0.957863 
0.0209566 0.410048 0.0374857 -0.110107 0.987395 0.113698 
-0.124813 -0.278694 0.056442 -0.0679582 0.234876 0.969647 
0.00124416 -0.235286 -0.212351 0.750163 0.519002 -0.409747 
-0.171661 0.015315 -0.200128 0.609455 -0.0390879 -0.791857 
-0.218156 -0.0387959 -0.242398 0.342263 0.388994 -0.855301 
0.060017 -0.060342 0.191113 0.125293 -0.89719 0.423499 
0.119713 -0.322254 0.0987958 0.609116 -0.663197 0.434911 
0.165872 0.432013 -0.0632629 -0.540012 0.770911 -0.337763 
0.00124416 -0.235286 -0.212351 0.750163 0.519002 -0.409747 
0.297153 0.250216 -0.0435451 0.898297 -0.35699 -0.256165 
0.0437898 -0.319142 -0.131312 0.799867 -0.0890943 -0.593527 
-0.172785 0.295826 0.0405799 -0.859672 0.443332 0.253812 
-0.225428 -0.469342 -0.0720837 -0.794564 -0.605349 0.0471208 
0.0930314 -0.0715785 0.151154 0.277328 -0.806203 0.522614 
-0.0300911 -0.281617 0.136227 -0.666923 -0.0417645 0.743955 
0.0185731 0.41234 -0.000880496 -0.117553 0.992797 0.0231298 
0.23182 0.337802 0.008973 0.346252 0.42013 0.838809 
0.171477 0.0913721 0.230463 0.593778 0.317938 0.73915 
-0.0203822 -0.119609 0.0796063 -0.924892 -0.188138 0.330423 
-0.234452 -0.447558 -0.0420512 -0.837432 -0.506313 0.205802 
-0.228043 -0.175525 -0.0565103 -0.500681 0.790723 0.352244 
0.188433 0.400781 0.0255219 0.471337 -0.0771609 0.878571 
-0.0409224 -0.176478 -0.157747 0.430616 0.893329 -0.128578 
0.0362957 0.26821 -0.243735 0.0882583 0.41135 -0.907194 
-0.249525 -0.426414 -0.0593499 -0.872943 -0.480074 0.0865984 
0.141616 0.171857 -0.236896 0.448942 0.0633462 -0.891313 
-0.071488 0.376239 0.0769741 -0.446723 0.859286 0.249131 
0.0782791 -0.0546427 0.194882 0.229996 -0.866887 0.442277 
-0.263447 0.137173 0.00212572 -0.633873 -0.201825 0.74664 
-0.161873 0.0136853 0.0777213 -0.860631 -0.467342 0.202249 
-0.11364 -0.384512 0.0688066 -0.00968647 0.270371 0.962708 
-0.136457 -0.182406 -0.00625967 -0.0335461 0.798582 0.600951 
-0.0877437 0.0887112 -0.227522 -0.430198 -0.288544 -0.855378 
-0.285369 -0.0748006 -0.204571 -0.890147 0.43077 0.148575 
-0.0323364 -0.17233 0.0834096 -0.860936 0.422174 0.283829 
0.220793 0.29982 0.0995334 0.741093 0.611536 0.277138 
-0.142343 0.186606 -0.203042 -0.535223 0.115289 -0.836806 
0.0762923 -0.094774 -0.0763411 0.159213 -0.708236 -0.687789 
-0.244814 -0.0134611 -0.183602 -0.830532 0.556944 -0.00538381 
0.143072 0.248178 0.200176 0.392541 0.00662342 0.919711 
0.13947 -0.418351 -0.0567135 0.755422 0.653849 -0.0426513 
-0.267032 -0.125195 -0.179032 -0.128238 0.102604 0.986422 
-0.0642147 -0.336459 -0.286182 0.262037 -0.174549 -0.949141 
0.0637787 -0.193491 0.172532 0.0374627 0.188417 0.981374 
-0.160047 0.338558 -0.0696293 -0.0641921 0.962373 -0.264041 
0.220908 0.058094 -0.153651 0.741877 -0.318078 -0.590293 
0.170553 0.321986 0.149884 0.554595 0.615491 0.559996 
-0.153532 -0.14281 -0.0910509 0.0168219 0.970355 0.241099 
-0.0526944 0.140367 0.21761 -0.762959 0.163871 0.625331 
-0.320997 0.240064 -0.0467949 -0.981387 -0.192031 0.00216182 
-0.100316 0.281855 0.17741 -0.536027 0.424654 0.729619 
-0.202544 0.0297143 -0.121544 -0.461986 -0.455046 0.76125 
-0.0618367 -0.494433 -0.192286 0.135347 -0.911071 -0.389398 
0.0510449 0.265254 0.22436 0.0843555 0.277658 0.956969 
-0.0157816 -0.193713 0.132813 -0.747949 0.291487 0.596329 
-0.142882 -0.436529 -0.244061 -0.247764 -0.487477 -0.837245 
-0.0281577 0.370438 0.131155 -0.249264 0.829396 0.499969 
0.105693 -0.00595186 -0.196935 0.286841 -0.634358 -0.717853 
-0.0728958 -0.495132 0.100737 -0.190542 -0.940823 0.280261 
-0.250643 -0.301428 -0.237761 -0.716682 -0.340575 -0.608585 
0.0635791 0.167765 -0.264069 0.177627 0.0684305 -0.981716 
0.281788 0.210018 -0.0475928 0.954132 -0.168682 -0.247342 
-0.0775018 -0.205239 -0.25305 0.327534 0.644765 -0.690651 
0.205801 0.0890039 0.20438 0.627976 0.161372 0.761318 
-0.194119 0.236117 0.051663 -0.952398 0.269362 0.142764 
0.0120339 -0.36546 -0.228634 0.755501 -0.297561 -0.583674 
0.258731 0.0985194 0.13472 0.902849 -0.0641811 0.42514 
-0.156316 0.107358 -0.193358 -0.336226 -0.0431411 -0.940793 
0.0793646 0.414614 -0.0107937 0.0262606 0.999653 0.00192103 
-0.0564248 0.237093 -0.239505 -0.359442 0.258526 -0.896641 
0.104481 0.0869196 0.276227 0.394614 0.107111 0.912583 
-0.0760281 0.305589 0.17783 -0.442958 0.540489 0.715304 
-0.018242 -0.496989 -0.107885 -0.0418389 -0.999119 0.00328565 
0.114894 0.347265 -0.163371 0.314569 0.682173 -0.660065 
0.157025 -0.218513 -0.0290646 0.835273 0.159489 -0.526195 
-0.103521 -0.152259 -0.143647 0.225395 0.972166 -0.0639613 
0.0366499 0.387472 -0.129209 -0.0102754 0.907223 -0.420525 
-0.116816 -0.0320404 -0.0533273 -0.60895 -0.775585 -0.166275 
-0.138319 -0.450307 -0.237276 -0.212534 -0.493022 -0.843658 
0.0412025 -0.403843 -0.13519 0.911136 0.130883 -0.39077 
-0.00586191 -0.428045 -0.202198 0.611707 -0.198794 -0.765699 
-0.178017 -0.260876 0.0490423 -0.109251 0.387246 0.915481 
0.258877 0.466691 -0.0675613 0.137962 0.694321 -0.706317 
0.226573 0.279287 0.12101 0.776703 0.487116 0.399312 
-0.188734 0.0389441 -0.017394 -0.818485 -0.573296 0.0376026 
0.152048 -0.140673 0.00423734 0.933199 0.181957 -0.309891 
0.0403753 -0.238487 0.17459 -0.158638 -0.0276327 0.98695 
0.0362969 -0.37499 -0.167465 0.945547 -0.209567 -0.249043 
0.303527 0.393831 -0.0785301 0.740795 0.139486 -0.657089 
0.137134 -0.460871 -0.0102946 0.659347 -0.0152546 0.751684 
-0.211383 0.0663579 -0.0292804 -0.754614 -0.653492 0.0592171 
-0.198457 -0.061996 -0.212326 0.905721 -0.364821 -0.215815 
0.195763 0.257915 -0.173847 0.633785 0.340446 -0.69456 
-0.171514 0.0142585 9.90155e-005 -0.807034 -0.590493 -0.00391892 
0.216659 0.267404 0.146918 0.711268 0.376879 0.593346 
-0.277595 0.144142 -0.0286479 -0.820775 -0.570796 -0.0228258 
0.233554 0.397876 -0.116561 0.151904 0.350946 -0.923992 
0.124042 -0.225897 -0.0666262 0.614172 0.160963 -0.772582 
-0.1006 -0.329798 -0.292657 0.0272822 -0.170402 -0.984997 
-0.245517 -0.334394 0.0296005 -0.694902 -0.0452465 0.71768 
-0.119037 -0.214016 -0.273031 0.154614 0.540991 -0.826694 
-0.141649 -0.147604 -0.175279 0.124256 0.959842 -0.251524 
-0.0371264 -0.000710344 0.240735 -0.365805 -0.598337 0.712867 
0.193535 0.00719141 0.182172 0.647439 -0.571869 0.503775 
0.27429 0.246081 0.055966 0.764498 0.274351 0.58333 
0.302501 0.301257 -0.0711591 0.844496 -0.217662 -0.489336 
0.239767 0.196643 0.148327 0.714046 0.159674 0.681647 
-0.125848 0.354248 0.0203801 -0.560967 0.8176 0.129793 
-0.237968 0.199079 -0.158424 -0.507439 -0.0487754 -0.860306 
0.0964149 -0.417769 -0.106677 0.348177 0.464869 -0.814045 
-0.0256457 -0.156881 0.0815278 -0.903511 0.357854 0.235813 
-0.0985222 -0.490179 -0.0141786 0.397188 -0.917292 -0.0285757 
-0.224374 -0.443473 -0.164346 -0.806494 -0.453761 -0.379036 
-0.206642 -0.149842 -0.228953 0.676887 0.722889 -0.138765 
-0.0156604 -0.465876 0.156704 -0.0466336 -0.028044 0.998518 
-0.222217 0.0236363 -0.178493 -0.888663 0.291401 -0.354066 
-0.205061 -0.0686834 -0.18214 0.686159 -0.559369 0.465072 
0.206254 -0.00206251 0.150912 0.684286 -0.610476 0.398837 
-0.188414 -0.438368 0.0542377 -0.804277 -0.0141618 0.594086 
0.0927612 0.315351 0.19571 0.19115 0.539159 0.820225 
-0.00081306 0.173708 0.246823 -0.353664 0.692344 0.628952 
-0.245488 0.181068 -0.150826 -0.61537 -0.181913 -0.76696 
-0.210999 0.349591 -0.0480739 0.204108 0.978725 -0.0209314 
-0.135443 0.0453935 -0.18482 -0.108326 -0.421775 -0.900206 
-0.0305367 -0.109674 0.0201598 -0.864315 -0.50189 -0.0326581 
-0.197317 -0.187142 -0.011896 -0.27408 0.752788 0.59849 
0.283974 0.142946 -0.0325854 0.99223 0.0146368 -0.12355 
0.222959 0.372771 -0.126511 0.161468 0.270442 -0.949099 
-0.25946 -0.0497837 -0.237739 -0.62321 0.63939 -0.450321 
-0.256151 -0.162293 -0.158886 -0.309868 0.74702 0.588169 
0.139349 -0.0419292 -0.130581 0.381207 -0.804571 -0.455354 
0.197895 0.169714 -0.199575 0.668055 0.064843 -0.741281 
0.219574 0.231444 -0.161958 0.731465 0.252236 -0.633511 
-0.250643 -0.301428 -0.237761 -0.716682 -0.340575 -0.608585 
0.0280515 0.376748 0.136381 -0.0571826 0.845018 0.531672 
0.0237143 -0.0374494 0.224161 -0.17749 -0.672547 0.718455 
-0.254893 -0.391553 -0.156972 -0.855297 -0.412339 -0.313758 
-0.123835 -0.496996 -0.131256 0.0277621 -0.998951 0.0364112 
0.283807 0.105834 0.0493714 0.98797 -0.0989011 0.118885 
0.0412595 0.407492 -0.0659587 -0.0330434 0.97859 -0.203148 
0.0769041 -0.29167 0.15685 0.272956 -0.478643 0.834503 
0.110715 -0.214557 -0.073069 0.527167 0.24698 -0.813078 
-0.228268 0.0551236 -0.134192 -0.717149 -0.504922 0.480366 
-0.0950927 -0.483205 0.107529 -0.115002 -0.42593 0.897417 
0.160145 -0.0655691 -0.0541119 0.539596 -0.785427 -0.303217 
0.155981 -0.299299 0.0532445 0.84581 -0.514547 0.140877 
-0.175502 0.0220674 -0.0545377 -0.744933 -0.665187 -0.0510027 
0.0897857 0.127296 0.268936 0.48351 0.464324 0.742039 
-0.216406 0.0511591 -0.190236 -0.460738 -0.48022 -0.746397 
0.226017 -0.0218388 0.0360489 0.722885 -0.688629 0.056809 
-0.025643 -0.484411 0.151437 -0.216648 -0.504207 0.835966 
0.171713 -0.240588 0.0775268 0.961935 -0.0661925 0.265141 
-0.322869 0.287169 -0.0349695 -0.846031 0.0559911 0.530186 
-0.220087 0.0403254 -0.133832 -0.81294 -0.330965 0.479157 
0.0407148 0.0261924 0.257217 0.129876 -0.297095 0.945974 
-0.021619 -0.39722 -0.242926 0.533851 -0.45929 -0.709969 
0.0723339 0.0858134 -0.254435 0.191842 -0.277792 -0.941291 
0.258877 0.466691 -0.0675613 0.137962 0.694321 -0.706317 
0.312298 0.316399 -0.0596015 0.902184 -0.186989 -0.388715 
0.164838 -0.249639 0.0956524 0.92087 -0.130643 0.36733 
-0.0727928 -0.0463083 -0.105763 -0.4336 -0.820798 -0.371864 
-0.167932 -0.32379 -0.282046 -0.332564 -0.227855 -0.915141 
0.119447 0.0560777 0.267301 0.404131 -0.234158 0.884222 
0.145688 -0.304458 -0.0287185 0.860055 -0.357983 -0.363531 
-0.22899 0.0931957 0.0055214 -0.686737 -0.626553 0.368542 
-0.24861 0.0696213 -0.171888 -0.900045 -0.341896 -0.270233 
0.140478 -0.442628 -0.0162356 0.756223 0.231206 0.612103 
0.306108 0.324886 0.0146231 0.465024 0.167832 0.869244 
-0.2066 -0.149973 -0.161006 -0.208648 0.976805 -0.048141 
0.25579 0.0615014 -0.098379 0.871639 -0.311095 -0.378769 
-0.29351 -0.254032 -0.123572 -0.992629 0.116144 0.0346264 
0.000223266 -0.495811 0.137799 0.169825 -0.891799 0.419349 
-0.0449162 0.0637993 0.261759 -0.654648 -0.00660345 0.755905 
-0.233016 -0.0977444 -0.268395 0.615581 0.149596 -0.773745 
-0.192601 -0.144343 -0.126423 -0.314695 0.947506 0.0565557 
0.114039 0.0240491 0.253169 0.249833 -0.553814 0.794275 
0.155623 0.103701 0.235181 0.554078 0.510481 0.657576 
-0.111523 -0.496951 0.00231683 0.112292 -0.991951 -0.0585181 
0.056853 0.264752 -0.242203 0.174115 0.405171 -0.897508 
-0.0231841 0.298492 -0.222913 -0.225064 0.536284 -0.813478 
-0.179729 0.330238 -0.0955255 0.107664 0.884039 -0.454844 
0.167167 0.0419431 -0.196795 0.533048 -0.395807 -0.747795 
-0.0390565 -0.0976648 0.052579 -0.698694 -0.708201 0.101382 
-0.0670761 -0.322286 0.0945961 -0.71331 -0.131298 0.68844 
0.221533 0.030203 0.165163 0.769328 -0.440056 0.463125 
-0.172295 0.272104 0.0864205 -0.854199 0.439129 0.278407 
-0.0280009 0.113879 -0.256298 -0.242262 -0.161443 -0.956684 
0.142739 0.233277 -0.223176 0.455826 0.29748 -0.838885 
