-0.109671 0.052198 0.238394 -0.824137 0.302991 0.478534 
-0.161945 -0.232781 0.132093 -0.696025 -0.714573 0.070242 
0.155969 0.173105 0.147249 -0.344863 0.549971 0.760659 
0.284824 0.096513 -0.133180 0.966207 -0.193659 -0.170119 
-0.202783 -0.149411 0.142668 -0.897050 -0.086724 0.433335 
0.268750 0.274431 -0.168517 0.861599 0.307897 -0.403542 
-0.107260 0.218661 0.164984 -0.207301 -0.961406 0.180898 
0.105227 -0.115747 -0.186305 0.755491 -0.131308 -0.641866 
-0.158375 -0.114311 0.231241 -0.461799 -0.114684 0.879539 
-0.061217 0.460855 -0.118050 -0.260396 0.960035 -0.102599 
0.158091 0.471986 0.326169 -0.592334 0.798614 -0.106568 
0.270461 -0.041692 0.038064 0.982795 -0.130829 0.130373 
-0.188175 0.330042 -0.238726 -0.654808 0.478998 -0.584625 
0.126560 0.206828 -0.345269 0.500682 0.165408 -0.849681 
0.001117 -0.234012 0.084845 0.000136 -0.385520 0.922700 
-0.167226 0.345691 0.205954 -0.961369 -0.103529 0.255053 
-0.160481 -0.028488 0.230642 -0.472693 -0.089586 0.876662 
0.120578 -0.123249 0.254260 -0.279286 0.873158 0.399493 
-0.048852 0.354745 0.192696 0.328050 0.772285 0.544022 
-0.080971 -0.201227 0.235887 -0.159911 -0.561493 0.811883 
-0.224032 0.120219 0.196436 -0.889638 0.211165 0.404912 
0.072610 0.099852 -0.367158 0.246350 -0.308565 -0.918749 
0.053965 0.023129 0.322276 -0.500028 -0.298225 -0.813040 
-0.210392 -0.171298 0.114909 -0.872046 -0.398016 0.284814 
0.174087 0.226740 0.224966 0.732890 0.057862 0.677882 
-0.269172 0.222840 -0.189784 -0.848926 0.135678 -0.510799 
-0.274880 0.124611 -0.187651 -0.912900 -0.095073 -0.396957 
-0.031082 0.007967 0.328265 0.187628 -0.477309 -0.858471 
0.153781 0.455828 0.285347 -0.271708 0.874085 -0.402679 
-0.109800 -0.494092 -0.001401 -0.496637 -0.187216 0.847527 
0.147421 0.215621 0.151528 -0.205971 -0.937442 0.280676 
-0.055112 0.021004 0.269479 -0.288401 -0.297477 0.910128 
-0.077360 0.237538 0.271075 -0.100615 0.247075 0.963758 
0.093816 0.309435 0.240522 -0.193449 0.079034 0.977922 
0.167071 0.379748 0.198066 0.811344 0.463413 -0.356327 
0.271779 0.229812 -0.182196 0.859777 0.125638 -0.494974 
-0.205473 0.201345 0.179991 -0.629331 -0.252411 0.735004 
-0.101206 -0.233816 0.064571 -0.665757 -0.291402 0.686915 
0.019439 0.353901 -0.322085 0.120568 0.529137 -0.839927 
0.184268 0.176616 0.168230 -0.531124 0.473099 0.702912 
0.169342 0.106303 0.259700 0.068098 0.650430 0.756507 
-0.113055 0.034212 0.236386 -0.881705 -0.206162 0.424374 
0.059104 0.055443 0.322021 0.742147 0.432613 0.511922 
-0.132314 -0.088656 0.122012 0.288675 -0.031126 0.956921 
0.123421 -0.207253 0.061569 0.745107 -0.468995 0.474192 
0.115689 0.390346 0.181782 -0.180130 0.897658 -0.402198 
0.184428 0.350039 -0.228900 0.631535 0.522526 -0.572827 
-0.015331 -0.057444 0.173429 -0.056918 -0.811608 0.581423 
-0.136053 0.186624 0.137530 0.066277 0.176483 0.982070 
0.139746 0.307123 0.231802 0.512112 -0.036445 0.858145 
-0.082822 -0.258795 0.200842 -0.391891 -0.772645 0.499440 
0.117002 -0.140910 0.155062 -0.209651 0.850465 0.482448 
0.071214 0.363165 0.194204 -0.725963 0.653410 0.214554 
0.066282 0.201738 0.166886 0.685996 -0.678433 0.262940 
0.204233 -0.191153 0.076956 0.460349 -0.752997 -0.470185 
-0.054436 0.180035 0.194874 -0.974953 -0.097463 0.199920 
0.013039 0.471800 -0.070391 0.053172 0.998294 0.024131 
0.106496 0.204136 -0.354788 0.352603 0.159777 -0.922032 
0.158248 0.367871 0.157708 0.669543 0.700501 -0.247003 
-0.035435 0.012436 0.354525 -0.613307 -0.496802 0.614037 
0.209544 0.179273 0.176894 0.127159 0.047786 0.990731 
-0.109960 -0.069162 0.243516 0.323098 -0.814869 0.481244 
-0.108642 0.062213 0.235857 -0.031281 0.138104 0.989924 
-0.010874 -0.276982 0.124372 -0.053952 -0.803618 -0.592695 
0.254092 -0.039447 -0.014744 0.742805 -0.297205 -0.599925 
-0.046093 0.056768 0.326914 -0.775391 0.394342 0.493217 
0.078680 0.028279 0.287213 -0.906472 -0.417210 -0.065146 
-0.144766 0.036568 0.255776 0.222495 -0.352096 0.909134 
-0.116647 -0.258691 0.126399 -0.280137 -0.858346 -0.429844 
-0.077535 0.209511 0.176359 -0.455459 -0.888702 -0.052586 
0.024667 -0.174721 -0.251997 0.183262 0.298802 -0.936554 
0.100879 -0.209044 0.087561 0.381808 -0.902680 0.198472 
0.081599 0.155105 0.183540 0.553453 0.714742 0.427590 
0.095928 0.344739 0.250875 -0.585991 -0.256887 0.768520 
0.153760 0.053006 -0.293015 0.472499 -0.556964 -0.683034 
0.071214 0.363165 0.194204 -0.725963 0.653410 0.214554 
-0.061361 0.069895 0.292754 -0.402512 0.799625 0.445627 
0.196868 0.192203 0.179659 -0.300125 -0.599398 0.742056 
0.083894 -0.291257 0.060752 0.239169 -0.279047 0.930017 
0.163952 -0.092235 0.130190 -0.536285 0.304912 0.787037 
0.106262 -0.060118 0.246959 -0.228369 -0.912003 0.340733 
-0.141691 -0.196936 0.020133 -0.886116 -0.267476 0.378490 
0.153687 0.019816 0.248180 -0.075157 -0.401455 0.912790 
-0.011039 0.470476 -0.106605 -0.082867 0.992399 -0.090978 
-0.092425 0.055582 0.290297 -0.548713 0.462116 0.696680 
0.244913 -0.128032 0.077484 0.937540 -0.232392 0.258866 
0.259142 0.005992 0.095702 0.925189 -0.201183 0.321793 
0.083339 -0.146201 0.164686 0.077863 0.949941 0.302572 
-0.270302 0.200275 0.031439 -0.967441 0.084270 0.238655 
0.013039 0.471800 -0.070391 0.053172 0.998294 0.024131 
-0.052804 -0.107898 -0.231964 -0.405683 -0.362958 -0.838858 
-0.101800 -0.131849 0.260236 -0.179533 0.606073 0.774883 
0.115470 -0.245827 0.193912 0.476386 -0.635035 0.608101 
-0.278331 0.094034 -0.164460 -0.932797 -0.196009 -0.302442 
-0.265478 0.247344 0.021203 -0.952639 0.204405 0.225161 
0.111658 -0.126347 0.248706 -0.351130 0.932386 -0.085816 
-0.269743 0.141046 0.042341 -0.977550 -0.004496 0.210657 
-0.052272 0.018106 0.328582 -0.825905 -0.094533 0.555827 
-0.078892 -0.309259 0.055395 -0.251191 -0.253893 0.934046 
0.115689 0.390346 0.181782 -0.180130 0.897658 -0.402198 
0.108544 0.202919 0.265065 0.269394 -0.699647 0.661756 
-0.247713 -0.016776 -0.054096 -0.895829 -0.441681 -0.049075 
0.046136 0.066662 -0.356893 0.176103 -0.514061 -0.839481 
-0.278331 0.094034 -0.164460 -0.932797 -0.196009 -0.302442 
0.147964 -0.091227 0.240339 -0.200427 -0.021104 0.979481 
0.175106 0.451368 0.348296 0.395122 -0.555518 0.731627 
-0.126585 -0.161496 -0.171732 -0.773628 0.298701 -0.558817 
-0.224481 -0.156061 0.086677 -0.895284 -0.429410 0.118632 
-0.270302 0.200275 0.031439 -0.967441 0.084270 0.238655 
0.153760 0.053006 -0.293015 0.472499 -0.556964 -0.683034 
-0.261076 0.010835 -0.110162 -0.892958 -0.437114 -0.107505 
-0.057946 0.177439 0.181154 -0.852688 0.430104 0.296536 
-0.101782 0.018245 0.241953 -0.696951 -0.591631 0.405255 
0.082042 -0.215013 0.089804 0.210832 -0.722680 0.658242 
0.266567 -0.055608 0.012141 0.921353 -0.207473 -0.328730 
0.170642 0.199189 0.148204 -0.693926 -0.263456 0.670117 
0.144354 -0.097918 0.239275 -0.814862 0.207837 0.541114 
0.004453 -0.000845 0.336977 0.003563 -0.995415 0.095579 
-0.269743 0.141046 0.042341 -0.977550 -0.004496 0.210657 
-0.152339 -0.029643 0.234033 -0.124202 -0.068691 0.989876 
-0.193570 0.110415 0.247528 -0.448555 0.596927 0.665189 
0.203282 0.394386 -0.031068 0.658197 0.733351 0.170215 
0.019439 0.353901 -0.322085 0.120568 0.529137 -0.839927 
-0.057964 -0.148128 0.201480 -0.043469 0.992920 -0.110549 
-0.234008 -0.038129 -0.101903 -0.820130 -0.551799 -0.151344 
0.148231 0.159814 -0.336287 0.578481 0.023548 -0.815356 
0.141648 -0.246900 0.172051 0.506389 -0.745999 0.432499 
0.252485 0.342044 -0.072170 0.845897 0.531387 0.045662 
-0.057904 0.144807 0.213712 -0.288888 0.533797 0.794735 
-0.109960 -0.069162 0.243516 0.323098 -0.814869 0.481244 
-0.144766 0.036568 0.255776 0.222495 -0.352096 0.909134 
0.113625 0.114175 0.242935 -0.349482 0.312372 0.883338 
-0.139210 0.313671 0.230905 -0.540815 -0.068974 0.838309 
0.023851 -0.279792 0.131733 0.077694 -0.965459 -0.248701 
0.009157 0.418867 -0.265230 0.065035 0.783936 -0.617425 
-0.077486 -0.057257 0.251337 0.263686 -0.952241 0.153971 
0.203282 0.394386 -0.031068 0.658197 0.733351 0.170215 
0.059920 0.166197 0.201818 0.860461 0.218304 0.460381 
-0.215778 0.119329 -0.275370 -0.744250 -0.054438 -0.665679 
-0.086695 -0.036943 -0.262262 -0.432421 -0.552247 -0.712766 
0.135294 -0.064771 0.162286 -0.251098 -0.967300 0.035794 
0.244635 0.241177 0.078909 0.906328 0.270273 0.324842 
-0.098973 0.154435 0.164285 -0.257527 0.863103 0.434435 
-0.144242 -0.096657 0.129656 0.512510 0.371856 0.773988 
-0.132767 0.382470 0.149141 -0.128373 0.991417 0.024736 
-0.123244 0.313681 0.239688 -0.384480 -0.308876 0.869926 
0.048893 -0.030230 0.283685 0.382493 -0.056379 0.922237 
-0.193570 0.110415 0.247528 -0.448555 0.596927 0.665189 
-0.132933 -0.233823 0.187059 -0.488387 -0.579472 0.652450 
-0.080641 -0.006273 0.255900 -0.476829 0.080972 0.875259 
0.196377 0.086066 0.261410 0.585930 0.237033 0.774920 
0.244960 0.248626 -0.215528 0.770854 0.205754 -0.602868 
0.263358 -0.002594 -0.023167 0.893954 -0.320235 -0.313523 
-0.200456 -0.005190 0.196856 -0.746544 -0.479582 0.461165 
0.223377 -0.157517 0.046318 0.395519 -0.706990 -0.586285 
-0.172087 -0.116057 -0.095567 -0.754389 -0.459073 -0.469201 
-0.159648 0.494994 0.337752 0.583419 0.615981 0.529330 
-0.123808 0.124865 0.238565 0.133001 0.658355 0.740864 
0.175528 0.036119 0.257618 0.212771 -0.532336 0.819358 
0.196868 0.192203 0.179659 -0.300125 -0.599398 0.742056 
-0.066247 0.010842 0.300200 0.186305 -0.971244 -0.148241 
0.144664 -0.085069 0.122026 -0.190123 -0.109995 0.975579 
0.107058 -0.220681 0.217647 0.408184 -0.502590 0.762095 
0.180685 0.440840 0.333404 0.683826 -0.542346 0.488102 
-0.176577 0.448014 0.295504 -0.994538 -0.093669 0.046040 
-0.175535 0.251395 0.218361 -0.694680 0.103921 0.711772 
0.263556 0.013489 -0.052884 0.921053 -0.377039 -0.097481 
0.087118 0.207019 0.271695 0.131171 -0.286235 0.949138 
-0.217111 -0.069884 0.123892 -0.883098 -0.132333 0.450141 
-0.257492 0.267244 -0.188802 -0.816565 0.309567 -0.487227 
0.084468 -0.244765 0.217806 0.321744 -0.521624 0.790183 
0.066282 0.201738 0.166886 0.685996 -0.678433 0.262940 
0.122396 0.021294 0.230206 0.451445 -0.063794 0.890016 
-0.045513 0.073671 0.306488 -0.719459 0.589192 0.367739 
-0.033619 0.044442 0.359680 -0.813806 0.168786 0.556085 
0.223888 0.379682 -0.071693 0.737269 0.675377 0.017312 
0.029094 0.010918 0.312560 0.880243 -0.447210 -0.158669 
-0.201610 -0.114161 -0.020482 -0.732670 -0.570529 -0.371069 
-0.009356 0.169240 0.267557 -0.340580 0.656423 0.673138 
0.025518 0.176177 0.257952 0.591650 0.313524 0.742734 
-0.157858 0.373946 0.163264 -0.576494 0.816585 -0.029040 
0.200720 0.165179 0.184335 -0.092938 0.516039 0.851508 
0.019304 0.352710 0.185740 -0.046865 0.739076 0.671990 
-0.145659 0.336461 0.238666 -0.597343 -0.486190 0.637810 
0.146454 -0.235982 -0.195447 0.696935 0.433972 -0.570921 
0.102053 0.412587 -0.233480 0.375141 0.760278 -0.530327 
0.108941 0.445550 -0.025585 0.331664 0.927682 0.171482 
-0.084052 0.189628 -0.364659 -0.245265 0.142155 -0.958977 
0.017416 0.285164 -0.351998 0.043797 0.285289 -0.957440 
-0.054436 0.180035 0.194874 -0.974953 -0.097463 0.199920 
-0.025312 0.009014 0.325502 -0.511249 -0.611445 -0.603953 
0.167223 -0.100773 0.198523 -0.828460 0.393106 -0.398900 
-0.153334 0.247453 -0.315391 -0.609392 0.276170 -0.743217 
-0.149832 -0.271779 -0.221855 -0.648305 0.457014 -0.608965 
0.036192 0.324608 -0.334929 0.167304 0.414939 -0.894335 
-0.070309 0.133933 -0.372314 -0.199239 -0.030119 -0.979488 
0.166659 0.188565 0.145410 -0.556640 0.234487 0.796974 
0.004039 0.226280 -0.365830 0.004314 0.190210 -0.981734 
-0.210392 -0.171298 0.114909 -0.872046 -0.398016 0.284814 
0.041043 0.013007 0.283714 0.633075 -0.191328 0.750073 
0.070724 0.375146 0.154673 -0.042092 0.924544 0.378742 
0.170214 -0.063974 0.232720 0.414458 0.060281 0.908070 
0.107404 -0.127880 0.139270 -0.035343 0.615201 0.787578 
-0.149832 -0.271779 -0.221855 -0.648305 0.457014 -0.608965 
-0.285581 0.215111 -0.158183 -0.951712 0.119805 -0.282650 
-0.192750 -0.131377 -0.006179 -0.684770 -0.668786 -0.289507 
0.103045 0.041787 0.294166 0.634328 0.092324 0.767531 
-0.052272 0.018106 0.328582 -0.825905 -0.094533 0.555827 
-0.123810 0.137555 0.215666 0.056165 0.951808 0.301508 
0.134956 -0.255796 0.155195 0.411734 -0.898114 0.154488 
-0.197241 0.154564 0.192375 -0.200580 0.716898 0.667702 
0.016213 0.000459 0.298509 0.449370 -0.760180 0.469247 
0.229908 0.366317 -0.037023 0.785986 0.581532 0.209871 
0.011895 0.000516 0.319437 0.388379 -0.921054 0.028667 
-0.008620 -0.046061 0.195811 0.005353 -0.915015 0.403385 
0.206182 0.111068 0.237073 0.697625 0.413540 0.585068 
0.244635 0.241177 0.078909 0.906328 0.270273 0.324842 
0.037339 0.018043 0.363729 0.517535 -0.415183 0.748185 
-0.020358 0.046110 0.372875 -0.552921 0.085334 0.828853 
-0.237554 -0.130098 0.045890 -0.909598 -0.413058 -0.044882 
-0.040910 -0.096579 0.137960 -0.191607 0.082350 0.978011 
0.112948 0.219459 0.163006 0.085279 -0.963726 0.252904 
0.163479 -0.231230 0.164183 0.707230 -0.599682 0.374443 
0.168114 0.331441 0.202781 0.924447 -0.247491 0.290077 
0.235798 0.055012 0.199739 0.933982 -0.073681 0.349640 
0.158091 0.471986 0.326169 -0.592334 0.798614 -0.106568 
-0.131749 -0.098906 0.124997 0.262363 0.516586 0.815049 
-0.177102 0.481634 0.325311 -0.976044 -0.021444 0.216513 
-0.027220 0.025031 0.296800 -0.810194 -0.445050 0.381467 
-0.056133 0.355172 0.199111 0.670352 0.644018 0.368603 
-0.161945 -0.232781 0.132093 -0.696025 -0.714573 0.070242 
-0.168134 0.082296 0.271325 0.016167 0.149375 0.988648 
-0.123994 0.261462 -0.330812 -0.480041 0.337207 -0.809847 
-0.158114 -0.123513 -0.111652 -0.840134 -0.212745 -0.498914 
-0.081869 0.456026 -0.064909 -0.313950 0.949101 0.025369 
0.278762 0.059564 -0.109930 0.955160 -0.289052 -0.064168 
-0.023251 0.147815 0.269819 -0.802928 0.417885 0.425063 
-0.029629 0.078140 0.343789 -0.804564 0.408786 0.430779 
-0.031082 0.007967 0.328265 0.187628 -0.477309 -0.858471 
0.107645 0.064130 0.276755 0.693681 0.587682 0.416457 
-0.082822 -0.258795 0.200842 -0.391891 -0.772645 0.499440 
0.247842 0.317169 -0.167264 0.792313 0.489658 -0.363972 
-0.100076 0.400546 0.096359 -0.207997 0.903451 0.374851 
0.106228 -0.210193 0.079671 0.655479 -0.497139 0.568507 
0.071214 0.363165 0.194204 -0.725963 0.653410 0.214554 
0.021535 -0.004979 0.292163 0.372063 -0.461991 0.805067 
0.080396 0.328334 0.234043 -0.588268 0.019462 0.808432 
-0.008058 -0.033950 0.293507 -0.071662 -0.596805 0.799180 
0.271529 0.290622 -0.142004 0.884101 0.397432 -0.245790 
-0.193908 0.359075 0.080725 -0.680241 0.713183 0.169237 
-0.123994 0.261462 -0.330812 -0.480041 0.337207 -0.809847 
0.139960 -0.104915 0.237571 -0.848427 0.502620 0.165969 
0.158616 0.198205 0.140122 -0.339349 -0.110804 0.934112 
0.289178 0.253237 -0.110787 0.981791 0.177938 -0.066515 
-0.059196 0.186133 0.157138 -0.859018 0.181940 0.478525 
-0.160174 0.451011 0.326199 -0.444220 -0.512157 0.735095 
-0.047913 0.169539 0.211250 -0.838085 -0.276812 0.470095 
0.166862 0.478351 0.346028 -0.626770 0.722669 0.291391 
0.086542 0.009981 0.259331 0.477016 -0.557586 0.679377 
0.169511 0.317081 0.195754 0.907224 0.108277 0.406474 
-0.120385 -0.132043 -0.168122 -0.788217 0.128990 -0.601727 
-0.029258 -0.160348 0.284504 -0.185169 -0.441861 0.877765 
-0.068279 0.178227 0.152508 -0.591999 0.534884 0.602857 
0.071214 0.363165 0.194204 -0.725963 0.653410 0.214554 
-0.116647 -0.258691 0.126399 -0.280137 -0.858346 -0.429844 
0.166659 0.188565 0.145410 -0.556640 0.234487 0.796974 
0.144487 0.226812 0.251638 0.561914 0.107428 0.820190 
0.104594 0.380883 0.140076 0.019998 0.982068 0.187463 
-0.145242 -0.260515 -0.006676 -0.905953 -0.078285 0.416078 
-0.193908 0.359075 0.080725 -0.680241 0.713183 0.169237 
-0.031082 0.007967 0.328265 0.187628 -0.477309 -0.858471 
-0.099051 -0.220333 0.217564 -0.384441 -0.528858 0.756646 
0.158154 0.429976 -0.077050 0.475092 0.879840 -0.013031 
0.007685 -0.189027 0.247806 -0.000458 -0.459844 0.887999 
-0.087775 -0.497565 0.006306 -0.208808 -0.237465 0.948688 
-0.202989 0.065584 0.253485 -0.723040 -0.139583 0.676557 
0.166049 0.359231 0.161679 0.883508 0.446987 -0.140059 
0.123754 -0.143658 0.166816 -0.425062 0.879624 0.213505 
0.184428 0.350039 -0.228900 0.631535 0.522526 -0.572827 
-0.020881 -0.006175 0.288334 -0.406701 -0.001199 0.913561 
0.174844 -0.087196 0.170027 -0.823883 -0.534623 -0.188136 
-0.114764 -0.236050 0.107955 0.002253 -0.482854 -0.875698 
-0.086695 -0.036943 -0.262262 -0.432421 -0.552247 -0.712766 
-0.160277 0.209906 0.160863 0.510460 -0.851755 0.118087 
0.040712 0.028350 0.289872 0.644827 -0.615874 0.452656 
0.174087 0.226740 0.224966 0.732890 0.057862 0.677882 
0.232285 -0.159208 0.081203 0.888673 -0.450985 0.082907 
-0.024991 -0.255567 0.112435 -0.010194 -0.374170 -0.927304 
-0.193570 0.110415 0.247528 -0.448555 0.596927 0.665189 
0.110447 0.414484 0.275888 -0.896445 0.306926 0.319660 
0.056817 -0.242754 0.223799 0.091392 -0.458470 0.883998 
-0.046260 0.454445 -0.176820 -0.208901 0.945334 -0.250408 
0.094641 0.068719 0.283109 0.380830 0.752933 0.536714 
0.001361 -0.216719 0.094067 -0.002006 -0.676514 0.736427 
-0.198668 -0.195104 0.093233 -0.710848 -0.690436 -0.134138 
0.002335 -0.102638 0.143128 -0.029137 -0.011542 0.999509 
-0.032909 0.439156 0.049957 -0.164172 0.910895 0.378574 
0.066176 -0.254854 0.112990 0.048491 -0.411638 -0.910056 
-0.294394 0.192391 -0.121942 -0.994087 0.012105 -0.107908 
-0.100076 0.400546 0.096359 -0.207997 0.903451 0.374851 
0.101203 -0.221856 0.076062 0.508304 -0.408089 0.758347 
0.005995 -0.039129 0.214085 0.009439 -0.979513 0.201158 
0.006234 -0.002301 0.300044 0.048232 -0.936272 0.347950 
0.049556 0.228506 -0.363110 0.109451 0.200819 -0.973495 
0.223888 0.379682 -0.071693 0.737269 0.675377 0.017312 
0.180301 -0.253650 -0.114647 0.965956 0.098542 0.239205 
0.117559 -0.259712 0.123129 0.205710 -0.776597 -0.595466 
-0.101782 0.018245 0.241953 -0.696951 -0.591631 0.405255 
0.083339 -0.146201 0.164686 0.077863 0.949941 0.302572 
0.104773 0.440784 -0.166404 0.321954 0.922299 -0.213798 
0.271779 0.229812 -0.182196 0.859777 0.125638 -0.494974 
0.045942 0.175183 0.233492 0.669672 -0.545028 0.504464 
0.197546 0.184671 0.175785 -0.447344 -0.179543 0.876155 
0.124642 0.044275 0.235023 0.012654 -0.199289 0.979859 
-0.103569 -0.168477 0.250365 -0.491920 -0.396627 0.775050 
0.104925 0.166220 0.147068 0.143180 0.601722 0.785767 
-0.167034 0.385398 -0.198722 -0.612565 0.685594 -0.393351 
-0.006844 -0.205303 -0.263737 -0.014992 0.307021 -0.951585 
0.121577 0.041922 0.237640 0.922183 0.062040 0.381746 
0.084468 -0.244765 0.217806 0.321744 -0.521624 0.790183 
0.040176 -0.050851 0.182603 0.025466 -0.905648 0.423265 
0.194355 0.380140 0.025774 0.668357 0.658713 0.345539 
-0.112445 0.443848 0.278709 0.844593 0.530497 0.072365 
0.139154 0.214268 0.146757 -0.002462 -0.813954 0.580924 
0.008464 0.088709 -0.370568 0.023850 -0.386073 -0.922160 
0.276843 0.295953 -0.096872 0.927774 0.372265 -0.025576 
-0.057733 0.392353 -0.280182 -0.324950 0.659717 -0.677629 
-0.242075 -0.016298 -0.130136 -0.798070 -0.533405 -0.280290 
0.123347 0.445684 -0.080286 0.361993 0.931839 -0.025240 
-0.029258 -0.160348 0.284504 -0.185169 -0.441861 0.877765 
0.115640 0.221642 0.266567 0.278692 0.086556 0.956472 
-0.059196 0.186133 0.157138 -0.859018 0.181940 0.478525 
0.100878 0.019609 0.285658 0.529252 -0.823108 0.205876 
-0.072871 0.200854 0.153285 -0.391967 -0.685155 0.613941 
0.269776 -0.047705 0.021681 0.982032 -0.159907 -0.100211 
-0.156022 0.108481 -0.328371 -0.537410 -0.245715 -0.806731 
-0.128255 0.147695 0.171727 0.073556 0.908628 0.411076 
-0.059743 0.060764 0.305958 -0.520372 0.610255 0.597329 
0.006234 -0.002301 0.300044 0.048232 -0.936272 0.347950 
-0.091712 0.070222 0.275133 -0.477214 0.785129 0.394764 
0.271779 0.229812 -0.182196 0.859777 0.125638 -0.494974 
-0.172130 0.333440 0.197254 -0.833018 0.169155 0.526753 
-0.273521 0.055669 -0.145461 -0.905251 -0.339340 -0.255672 
-0.114019 0.435887 0.291594 0.837903 0.107688 0.535090 
-0.116272 -0.259856 0.154276 -0.349955 -0.933293 0.080595 
-0.168827 0.493113 0.313041 -0.385279 0.811505 -0.439341 
-0.167240 -0.140393 -0.082325 -0.974344 -0.156970 -0.161292 
0.171443 0.465700 0.301289 0.226210 0.835703 -0.500429 
0.062806 0.430955 0.057883 0.188094 0.885660 0.424532 
0.017466 -0.026312 0.295295 0.167930 -0.022102 0.985551 
0.026845 0.468099 -0.118254 0.114358 0.986631 -0.116109 
-0.190349 0.324111 0.177830 -0.796742 0.363348 0.482888 
-0.253331 0.316298 -0.137118 -0.810400 0.532804 -0.243662 
0.180301 -0.253650 -0.114647 0.965956 0.098542 0.239205 
-0.189026 0.238547 -0.284740 -0.697494 0.219130 -0.682264 
0.155969 0.173105 0.147249 -0.344863 0.549971 0.760659 
0.165427 0.195669 -0.317405 0.651853 0.148276 -0.743708 
0.012259 0.105635 -0.375538 0.046826 -0.166304 -0.984962 
-0.215559 -0.164447 0.056124 -0.534919 -0.710252 -0.457607 
-0.246818 -0.067149 0.072566 -0.909350 -0.135738 0.393266 
0.277904 0.082184 0.002125 0.994163 -0.064549 0.086446 
0.107404 -0.127880 0.139270 -0.035343 0.615201 0.787578 
0.101489 0.057880 0.289810 0.592127 0.451906 0.667208 
-0.222170 0.326598 0.073957 -0.817027 0.544351 0.190126 
-0.111673 0.392109 0.179473 0.117786 0.868567 -0.481371 
0.064338 -0.143087 0.282421 0.323990 -0.040075 0.945211 
0.166331 -0.231081 -0.161569 0.796184 0.419092 -0.436409 
0.156630 -0.479455 -0.036371 0.805486 -0.386195 0.449495 
0.192664 -0.151834 0.022463 0.508865 -0.750068 -0.422439 
0.088113 0.134301 0.221632 -0.119006 0.721637 0.681966 
-0.154802 0.008676 0.241880 -0.247408 -0.378575 0.891891 
-0.121748 0.370201 -0.264078 -0.462232 0.601739 -0.651347 
-0.244395 -0.109042 0.057559 -0.956064 -0.241265 0.166531 
-0.253331 0.316298 -0.137118 -0.810400 0.532804 -0.243662 
0.165245 -0.172798 -0.109637 0.927417 0.247005 -0.280867 
-0.251919 0.328116 -0.070184 -0.854223 0.512162 0.089403 
0.177333 -0.094333 0.169851 -0.979382 0.113296 -0.167255 
0.135211 -0.056009 -0.207170 0.547495 -0.602063 -0.581179 
-0.128525 -0.248512 0.027487 -0.808488 -0.159053 0.566612 
-0.157858 0.373946 0.163264 -0.576494 0.816585 -0.029040 
0.220420 0.143116 0.189872 0.636433 0.500791 0.586653 
0.088113 0.134301 0.221632 -0.119006 0.721637 0.681966 
0.244913 -0.128032 0.077484 0.937540 -0.232392 0.258866 
-0.008620 -0.046061 0.195811 0.005353 -0.915015 0.403385 
0.059920 0.166197 0.201818 0.860461 0.218304 0.460381 
0.049244 -0.102929 -0.235984 0.372229 -0.402339 -0.836402 
-0.144766 0.036568 0.255776 0.222495 -0.352096 0.909134 
-0.169754 0.481258 0.298859 -0.603128 0.584993 -0.542236 
-0.084031 0.377898 0.159696 0.249751 0.963325 0.098125 
-0.085346 0.440107 0.008058 -0.293835 0.905706 0.305544 
0.170642 0.199189 0.148204 -0.693926 -0.263456 0.670117 
-0.066791 -0.264446 0.119172 -0.099071 -0.602341 -0.792067 
-0.271816 0.271991 -0.155962 -0.878275 0.381708 -0.287979 
-0.057946 0.177439 0.181154 -0.852688 0.430104 0.296536 
0.172681 0.407055 -0.156226 0.579308 0.766016 -0.278606 
0.149015 -0.106980 0.133500 -0.324565 0.626657 0.708490 
-0.217111 -0.069884 0.123892 -0.883098 -0.132333 0.450141 
0.105055 0.156226 0.158083 0.194907 0.841770 0.503423 
0.107058 -0.220681 0.217647 0.408184 -0.502590 0.762095 
0.163479 -0.231230 0.164183 0.707230 -0.599682 0.374443 
-0.058907 0.193990 0.265822 -0.016964 -0.766427 0.642108 
-0.005515 -0.090849 0.144913 -0.110843 -0.396640 0.911258 
0.264574 0.308025 -0.042659 0.887824 0.407564 0.213685 
0.126560 0.206828 -0.345269 0.500682 0.165408 -0.849681 
0.192533 0.234095 0.200396 0.807436 0.139714 0.573173 
0.008464 0.088709 -0.370568 0.023850 -0.386073 -0.922160 
-0.189026 0.238547 -0.284740 -0.697494 0.219130 -0.682264 
-0.084031 0.377898 0.159696 0.249751 0.963325 0.098125 
0.082778 0.387109 0.125673 0.135744 0.895218 0.424450 
-0.119895 -0.066209 0.168345 0.303257 -0.952861 -0.009519 
-0.140340 -0.058923 -0.200900 -0.567966 -0.606268 -0.556645 
-0.197241 0.154564 0.192375 -0.200580 0.716898 0.667702 
0.072605 0.141517 0.214212 0.118542 0.693490 0.710647 
0.107404 -0.127880 0.139270 -0.035343 0.615201 0.787578 
0.104963 0.097956 -0.353048 0.434476 -0.345499 -0.831782 
0.129563 0.125585 0.239649 -0.140017 0.687738 0.712329 
0.181514 -0.053652 0.217596 0.778542 0.002369 0.627588 
0.066176 -0.254854 0.112990 0.048491 -0.411638 -0.910056 
-0.163577 -0.168190 -0.029857 -0.973057 -0.225083 0.049978 
-0.191688 0.295568 0.192022 -0.754697 0.214316 0.620082 
-0.200066 0.090454 -0.285117 -0.641893 -0.323168 -0.695367 
0.121577 0.041922 0.237640 0.922183 0.062040 0.381746 
0.235334 0.173624 -0.245240 0.787442 0.086907 -0.610231 
0.004941 0.037749 -0.342482 0.010051 -0.543030 -0.839653 
-0.118244 -0.102254 -0.179868 -0.675166 -0.456031 -0.579816 
-0.068076 0.026046 0.295411 0.872415 -0.224137 -0.434344 
0.162338 -0.086322 0.198384 -0.658268 -0.647933 -0.383230 
-0.046253 0.175850 0.224142 -0.632499 -0.754079 0.176946 
0.192664 -0.151834 0.022463 0.508865 -0.750068 -0.422439 
0.022593 0.191846 0.254499 -0.248257 -0.014042 0.968592 
-0.198086 0.297075 -0.249599 -0.686107 0.338742 -0.643826 
-0.051314 -0.129975 0.257185 0.001657 0.965864 -0.259043 
0.152319 -0.303835 -0.010069 0.873019 -0.063609 0.483520 
0.275556 0.095343 -0.166110 0.919282 -0.206440 -0.335116 
0.107058 -0.220681 0.217647 0.408184 -0.502590 0.762095 
0.159864 0.206947 0.144042 -0.366470 -0.637011 0.678172 
0.166862 0.478351 0.346028 -0.626770 0.722669 0.291391 
0.127594 -0.067420 0.139926 -0.074556 -0.938248 0.337835 
-0.128525 -0.248512 0.027487 -0.808488 -0.159053 0.566612 
-0.118935 -0.078349 0.229099 0.700367 -0.709105 -0.081591 
-0.006844 -0.205303 -0.263737 -0.014992 0.307021 -0.951585 
-0.141691 -0.196936 0.020133 -0.886116 -0.267476 0.378490 
0.244635 0.241177 0.078909 0.906328 0.270273 0.324842 
-0.131423 -0.487056 -0.018042 -0.718518 -0.121955 0.684732 
-0.207533 -0.394894 -0.259644 -0.674179 0.478817 -0.562332 
-0.170008 -0.188723 0.066708 -0.157422 -0.756731 -0.634489 
0.152319 -0.303835 -0.010069 0.873019 -0.063609 0.483520 
0.092677 -0.141563 0.152956 0.087981 0.755115 0.649662 
-0.038918 -0.054159 -0.271437 -0.254560 -0.546389 -0.797909 
0.165748 -0.133407 -0.093331 0.894374 -0.100750 -0.435826 
-0.217351 0.365015 -0.019691 -0.758266 0.630810 0.164655 
0.224597 0.321040 -0.203453 0.743961 0.454843 -0.489530 
0.234854 -0.149787 0.048389 0.701950 -0.623612 -0.344054 
0.069185 0.011449 0.314061 0.620803 -0.635543 0.459008 
0.145877 0.156193 0.161308 -0.272132 0.803496 0.529470 
0.150227 0.371600 0.145520 0.532509 0.844305 -0.059857 
-0.179811 0.110971 0.253010 -0.178637 0.695861 0.695606 
-0.269743 0.141046 0.042341 -0.977550 -0.004496 0.210657 
-0.093082 0.214636 0.183393 -0.290815 -0.939193 -0.182601 
-0.068076 0.026046 0.295411 0.872415 -0.224137 -0.434344 
-0.150152 -0.096870 0.201582 0.842049 -0.113762 -0.527267 
0.157884 -0.073011 0.140141 -0.386260 -0.887820 0.250159 
0.086049 0.375818 0.159815 -0.242187 0.962349 0.123410 
-0.066791 -0.264446 0.119172 -0.099071 -0.602341 -0.792067 
-0.095308 -0.051091 0.256194 -0.179793 -0.334084 0.925236 
-0.054392 0.335152 0.217643 0.573516 0.485396 0.659901 
0.006234 -0.002301 0.300044 0.048232 -0.936272 0.347950 
0.049108 0.131412 0.245499 0.796906 0.373992 0.474416 
-0.194357 0.189563 0.180052 0.180705 -0.502260 0.845624 
0.204970 -0.428874 -0.159154 0.955216 -0.246584 0.163578 
-0.047692 0.006044 0.319362 0.244669 -0.845525 -0.474579 
-0.113687 0.089079 -0.345724 -0.419599 -0.423551 -0.802833 
-0.129203 -0.081997 0.123764 0.173387 -0.538215 0.824780 
0.197368 0.340497 0.076278 0.737460 0.585139 0.337290 
0.115149 0.276052 0.253349 0.300521 0.282854 0.910868 
-0.112507 0.019723 0.231073 -0.427487 -0.123974 0.895481 
0.191404 -0.171945 0.175423 0.828194 -0.280835 0.485002 
0.264574 0.308025 -0.042659 0.887824 0.407564 0.213685 
-0.202989 0.065584 0.253485 -0.723040 -0.139583 0.676557 
-0.133151 0.426190 0.311234 0.457897 -0.312803 0.832157 
0.088113 0.134301 0.221632 -0.119006 0.721637 0.681966 
0.052918 0.027987 0.278186 0.456236 -0.576143 0.678165 
0.110801 0.328732 0.249444 -0.220877 -0.440354 0.870231 
0.119669 0.315794 0.242841 0.100289 -0.386531 0.916808 
0.232285 -0.159208 0.081203 0.888673 -0.450985 0.082907 
-0.031870 -0.031146 0.287966 -0.355091 -0.107637 0.928615 
0.039846 0.169050 0.239816 0.826973 0.000120 0.562242 
-0.102720 0.052424 0.281347 -0.821512 0.293054 0.489120 
0.029094 0.010918 0.312560 0.880243 -0.447210 -0.158669 
-0.032103 -0.278679 0.137064 -0.094829 -0.988765 -0.115544 
0.077730 0.298491 -0.335599 0.320128 0.401696 -0.857996 
0.025518 0.176177 0.257952 0.591650 0.313524 0.742734 
0.099420 0.075887 0.263531 0.433712 0.854342 0.286345 
-0.086695 -0.036943 -0.262262 -0.432421 -0.552247 -0.712766 
-0.132933 -0.233823 0.187059 -0.488387 -0.579472 0.652450 
-0.172087 -0.116057 -0.095567 -0.754389 -0.459073 -0.469201 
0.104773 0.440784 -0.166404 0.321954 0.922299 -0.213798 
-0.172492 0.399583 -0.157675 -0.607552 0.753321 -0.251768 
0.191404 -0.171945 0.175423 0.828194 -0.280835 0.485002 
0.081871 -0.232160 0.080965 0.232072 -0.381758 0.894653 
-0.114226 0.218165 0.183323 0.012619 -0.982563 -0.185501 
0.014163 -0.087972 0.146115 0.060022 -0.413430 0.908556 
-0.153009 0.424975 -0.093977 -0.504052 0.862193 -0.050550 
-0.015331 -0.057444 0.173429 -0.056918 -0.811608 0.581423 
0.142078 0.408208 -0.201149 0.513428 0.757702 -0.402838 
-0.122973 -0.378126 -0.305648 -0.370919 0.418430 -0.829057 
0.041705 0.378563 -0.299400 0.240699 0.614063 -0.751658 
-0.153334 0.247453 -0.315391 -0.609392 0.276170 -0.743217 
0.020223 0.046276 0.376516 0.210089 0.098469 0.972711 
0.039572 -0.081559 0.144881 0.199022 -0.470583 0.859618 
-0.044261 0.175896 -0.372870 -0.077024 0.120200 -0.989757 
0.028627 0.459571 -0.168412 0.115840 0.964420 -0.237645 
0.196377 0.086066 0.261410 0.585930 0.237033 0.774920 
-0.173747 -0.166531 0.036756 -0.399170 -0.812275 -0.425292 
-0.102965 -0.067559 0.237837 0.413528 -0.900334 0.135621 
0.264645 0.132268 -0.203780 0.875957 -0.054015 -0.479355 
-0.142578 0.411902 -0.183475 -0.527091 0.788895 -0.315944 
-0.170660 -0.270323 -0.085531 -0.983285 0.055951 0.173264 
0.018746 -0.120966 0.149980 0.079373 0.603222 0.793614 
-0.205763 0.170520 0.179463 -0.228648 0.365695 0.902212 
-0.114777 -0.208210 0.062166 -0.725231 -0.418463 0.546743 
-0.106993 0.142181 -0.361248 -0.395118 -0.021673 -0.918375 
-0.177102 0.481634 0.325311 -0.976044 -0.021444 0.216513 
-0.017998 0.021719 0.371471 -0.287265 -0.360234 0.887530 
0.134406 0.315058 0.237028 0.385296 -0.410415 0.826503 
0.276843 0.295953 -0.096872 0.927774 0.372265 -0.025576 
-0.157960 0.208346 0.231248 -0.567174 -0.525637 0.634050 
-0.045970 -0.141825 0.285601 -0.249281 -0.089699 0.964268 
0.011942 0.239396 0.251752 -0.329524 -0.000901 0.944147 
-0.167163 0.060639 0.269214 0.005159 -0.241236 0.970453 
-0.250743 -0.008914 0.089386 -0.911372 -0.192662 0.363707 
0.045942 0.175183 0.233492 0.669672 -0.545028 0.504464 
-0.089552 -0.145391 0.207339 0.133294 0.956443 -0.259711 
0.147001 0.391305 0.188215 0.373307 0.791281 -0.484268 
-0.170660 -0.270323 -0.085531 -0.983285 0.055951 0.173264 
0.155345 -0.118019 0.239879 0.435483 -0.026574 0.899805 
0.043142 -0.124853 0.286126 0.227734 0.620314 0.750565 
0.111393 0.159250 -0.357537 0.406955 0.041326 -0.912513 
-0.071455 0.015373 0.274539 0.716814 -0.650777 0.250335 
0.167343 0.356531 0.140790 0.795435 0.602766 0.062893 
-0.044261 0.175896 -0.372870 -0.077024 0.120200 -0.989757 
0.113752 -0.133331 0.261666 0.303800 0.267755 0.914338 
-0.101869 -0.140810 0.153017 0.209171 0.796657 0.567085 
-0.020619 -0.140508 0.179822 -0.100627 0.973902 0.203444 
0.125154 0.175200 0.140569 -0.002980 0.346271 0.938130 
-0.070511 0.190924 0.148457 -0.405110 -0.296131 0.864981 
0.191404 -0.171945 0.175423 0.828194 -0.280835 0.485002 
0.137059 0.343766 -0.275895 0.503084 0.516143 -0.693183 
-0.119801 0.217406 -0.347643 -0.442247 0.209746 -0.872023 
0.033571 0.026555 0.313465 0.711268 -0.680662 -0.175490 
0.018714 -0.140758 -0.243805 0.158434 0.203861 -0.966095 
0.169270 0.074743 0.271904 -0.107111 -0.080378 0.990993 
-0.197241 0.154564 0.192375 -0.200580 0.716898 0.667702 
-0.057946 0.177439 0.181154 -0.852688 0.430104 0.296536 
-0.091426 0.081590 0.234542 -0.422261 0.443635 0.790496 
0.051875 -0.097993 0.139053 0.145418 0.160563 0.976255 
-0.123808 0.124865 0.238565 0.133001 0.658355 0.740864 
-0.215778 0.119329 -0.275370 -0.744250 -0.054438 -0.665679 
-0.070151 0.026440 0.279286 0.845626 -0.520665 0.117576 
0.087118 0.207019 0.271695 0.131171 -0.286235 0.949138 
0.037215 0.008381 0.328260 0.259439 -0.704600 -0.660477 
-0.155700 0.188270 0.142925 0.480595 0.237112 0.844279 
-0.231234 0.358297 -0.076484 -0.782518 0.622094 0.025755 
0.226387 0.129128 -0.259376 0.783011 -0.034629 -0.621043 
-0.066791 -0.264446 0.119172 -0.099071 -0.602341 -0.792067 
-0.148418 0.183762 -0.336124 -0.602695 0.130185 -0.787281 
0.107404 -0.127880 0.139270 -0.035343 0.615201 0.787578 
-0.091426 0.081590 0.234542 -0.422261 0.443635 0.790496 
0.090463 0.377854 0.172851 -0.412644 0.884150 -0.219096 
-0.145828 -0.224525 0.184277 -0.629749 -0.522136 0.575143 
0.139635 0.451479 0.316358 -0.844075 0.471451 0.255483 
0.137059 0.343766 -0.275895 0.503084 0.516143 -0.693183 
0.065511 0.172415 0.181754 0.785138 0.533073 0.315265 
0.048287 -0.141005 -0.233631 0.378615 0.236915 -0.894719 
0.035918 -0.144043 0.198556 0.064499 0.997879 0.008758 
-0.048825 -0.185359 -0.248322 -0.388084 0.303341 -0.870273 
-0.198086 0.297075 -0.249599 -0.686107 0.338742 -0.643826 
0.092064 0.104220 0.234956 -0.247212 0.034124 0.968360 
0.207288 0.193620 0.179694 0.333221 -0.381352 0.862284 
-0.246638 0.010038 -0.159150 -0.785590 -0.479407 -0.391175 
0.108941 0.445550 -0.025585 0.331664 0.927682 0.171482 
0.169270 0.074743 0.271904 -0.107111 -0.080378 0.990993 
0.017876 0.182400 0.257136 0.013080 0.523165 0.852131 
0.122535 -0.085717 0.120870 0.121025 -0.206752 0.970879 
0.218577 0.177831 0.171427 0.586487 0.186305 0.788241 
0.200920 -0.024754 0.194362 0.811447 -0.278291 0.513914 
0.152319 -0.303835 -0.010069 0.873019 -0.063609 0.483520 
0.099420 0.075887 0.263531 0.433712 0.854342 0.286345 
-0.107237 -0.123823 0.252657 0.389214 0.890009 0.237480 
-0.160359 -0.089214 0.157901 0.877436 -0.474820 -0.068201 
0.021535 -0.004979 0.292163 0.372063 -0.461991 0.805067 
0.187837 0.193588 0.171468 -0.686826 -0.505291 0.522448 
0.020323 0.080286 0.364185 0.370023 0.498704 0.783822 
-0.129369 -0.095802 0.235407 0.942561 -0.085375 0.322939 
-0.163577 -0.168190 -0.029857 -0.973057 -0.225083 0.049978 
0.088917 -0.220959 0.105328 -0.044806 -0.432216 -0.900656 
0.064319 0.151502 0.209385 0.547611 0.576193 0.606733 
0.218577 0.177831 0.171427 0.586487 0.186305 0.788241 
0.270934 0.048265 -0.136498 0.910762 -0.336192 -0.239764 
0.176108 -0.104627 0.227361 0.741619 -0.107763 0.662109 
-0.202989 0.065584 0.253485 -0.723040 -0.139583 0.676557 
0.019304 0.352710 0.185740 -0.046865 0.739076 0.671990 
-0.168801 0.362810 0.170960 -0.798774 0.597440 0.070891 
-0.056133 0.355172 0.199111 0.670352 0.644018 0.368603 
0.172681 0.407055 -0.156226 0.579308 0.766016 -0.278606 
-0.095610 0.018761 0.253425 -0.559474 -0.797331 0.226388 
0.111393 0.159250 -0.357537 0.406955 0.041326 -0.912513 
-0.186671 -0.450764 -0.106026 -0.932973 0.005031 0.359911 
0.232036 0.366987 -0.105496 0.761305 0.632680 -0.141882 
-0.006671 0.088587 0.359370 -0.197529 0.579204 0.790889 
-0.178852 -0.245944 -0.152420 -0.899531 0.365160 -0.239797 
0.223377 0.349194 0.016053 0.801366 0.495765 0.334708 
0.144664 -0.085069 0.122026 -0.190123 -0.109995 0.975579 
0.165897 -0.199245 0.191100 0.650315 -0.431139 0.625468 
0.026845 0.468099 -0.118254 0.114358 0.986631 -0.116109 
-0.217111 -0.069884 0.123892 -0.883098 -0.132333 0.450141 
0.174065 0.338800 0.162842 0.935521 0.338429 0.101326 
-0.050262 0.260863 -0.356307 -0.120420 0.247155 -0.961464 
-0.008058 -0.033950 0.293507 -0.071662 -0.596805 0.799180 
0.083894 -0.291257 0.060752 0.239169 -0.279047 0.930017 
0.129451 0.143918 0.180933 -0.025857 0.958749 0.283075 
0.275556 0.095343 -0.166110 0.919282 -0.206440 -0.335116 
0.035037 0.023886 0.322234 0.682175 -0.444744 -0.580379 
-0.072871 0.200854 0.153285 -0.391967 -0.685155 0.613941 
-0.150128 0.478128 0.334905 0.659472 0.066355 0.748794 
-0.141927 -0.081416 0.129318 0.392005 -0.619186 0.680398 
-0.172274 0.351516 0.182551 -0.912922 0.330529 0.239422 
-0.008726 -0.053842 -0.276424 -0.048348 -0.556194 -0.829645 
-0.008792 0.064646 0.372878 -0.167153 0.342751 0.924436 
-0.056133 0.355172 0.199111 0.670352 0.644018 0.368603 
-0.123808 0.124865 0.238565 0.133001 0.658355 0.740864 
0.247842 0.317169 -0.167264 0.792313 0.489658 -0.363972 
-0.207533 -0.394894 -0.259644 -0.674179 0.478817 -0.562332 
-0.217351 0.365015 -0.019691 -0.758266 0.630810 0.164655 
0.108372 0.217052 0.195878 0.065403 -0.970821 -0.230712 
0.220420 0.143116 0.189872 0.636433 0.500791 0.586653 
0.193471 -0.001421 0.217163 0.658672 -0.414029 0.628276 
0.115689 0.390346 0.181782 -0.180130 0.897658 -0.402198 
0.250760 -0.016919 0.102330 0.867653 -0.257233 0.425451 
0.035918 -0.144043 0.198556 0.064499 0.997879 0.008758 
-0.114867 0.142595 0.187433 -0.065058 0.958643 0.277077 
0.017568 0.124492 0.323605 0.422802 0.688220 0.589570 
-0.044261 0.175896 -0.372870 -0.077024 0.120200 -0.989757 
-0.112239 -0.197960 -0.209307 -0.648815 0.383377 -0.657314 
0.097538 -0.072518 0.133846 0.151324 -0.669555 0.727184 
0.163479 -0.231230 0.164183 0.707230 -0.599682 0.374443 
-0.197752 0.087560 0.257505 -0.679239 0.255226 0.688109 
0.004039 0.226280 -0.365830 0.004314 0.190210 -0.981734 
0.244960 0.248626 -0.215528 0.770854 0.205754 -0.602868 
0.144487 0.226812 0.251638 0.561914 0.107428 0.820190 
-0.054416 0.318065 -0.334779 -0.225375 0.417475 -0.880296 
-0.168827 0.493113 0.313041 -0.385279 0.811505 -0.439341 
0.041340 0.032268 0.305172 0.308536 -0.950709 -0.030945 
0.060113 0.463611 -0.048490 0.225944 0.969391 0.096077 
0.135532 -0.199678 0.079022 0.082523 -0.868526 -0.488725 
-0.226700 -0.150809 0.051881 -0.793527 -0.569788 -0.213674 
0.162663 -0.030022 0.233537 0.257458 -0.095984 0.961511 
-0.012802 0.192061 0.254321 0.342250 0.036739 0.938890 
-0.048595 0.087684 0.270053 -0.794492 0.485499 0.364793 
0.224386 0.067294 0.226753 0.892544 -0.005648 0.450925 
0.118146 0.040294 0.269074 0.958823 -0.124330 0.255343 
-0.185866 0.079099 0.268706 -0.405750 0.022555 0.913706 
0.002773 0.191351 0.247552 0.063319 0.506841 0.859711 
0.033630 -0.273118 0.121881 0.061903 -0.673414 -0.736670 
0.111658 -0.126347 0.248706 -0.351130 0.932386 -0.085816 
0.078245 0.012658 0.293129 -0.523796 -0.791467 -0.314988 
0.177918 0.478816 0.356424 0.126682 0.532445 0.836931 
0.192959 0.074838 -0.280095 0.575162 -0.440936 -0.689031 
-0.066758 0.202317 0.162218 -0.533698 -0.804416 0.260922 
0.266434 0.246438 0.017879 0.932377 0.218239 0.288176 
-0.158140 0.206758 0.148052 0.554339 -0.639717 0.532419 
0.123347 0.445684 -0.080286 0.361993 0.931839 -0.025240 
0.179834 0.347966 0.107081 0.733216 0.658090 0.171206 
-0.146742 -0.094807 0.237134 -0.300019 -0.014195 0.953828 
0.107946 0.079417 0.234096 -0.280991 -0.071333 0.957056 
0.076439 0.118838 -0.369791 0.251476 -0.069912 -0.965335 
-0.247713 -0.016776 -0.054096 -0.895829 -0.441681 -0.049075 
-0.273521 0.055669 -0.145461 -0.905251 -0.339340 -0.255672 
-0.092234 -0.212222 0.083961 -0.477404 -0.624589 0.618041 
0.207288 0.193620 0.179694 0.333221 -0.381352 0.862284 
0.139960 -0.104915 0.237571 -0.848427 0.502620 0.165969 
0.199697 0.064059 0.259097 0.614791 -0.174369 0.769173 
-0.128525 -0.248512 0.027487 -0.808488 -0.159053 0.566612 
0.166049 0.359231 0.161679 0.883508 0.446987 -0.140059 
-0.031870 -0.031146 0.287966 -0.355091 -0.107637 0.928615 
0.124741 -0.139222 0.200328 -0.473995 0.826325 -0.304164 
0.167223 -0.100773 0.198523 -0.828460 0.393106 -0.398900 
0.104166 0.025705 0.290465 0.758416 -0.365458 0.539672 
-0.284727 0.254270 -0.074570 -0.958047 0.268908 0.099172 
-0.021611 -0.122934 0.287537 -0.122330 0.856123 0.502085 
-0.120704 -0.073294 0.131170 0.081560 -0.834404 0.545085 
-0.112792 -0.050810 0.248707 -0.360271 0.071968 0.930068 
0.235205 0.348743 -0.145534 0.755485 0.587478 -0.290020 
0.152319 -0.303835 -0.010069 0.873019 -0.063609 0.483520 
-0.224481 -0.156061 0.086677 -0.895284 -0.429410 0.118632 
-0.223650 0.181493 0.162544 -0.718683 0.153539 0.678175 
0.206182 0.111068 0.237073 0.697625 0.413540 0.585068 
0.117559 -0.259712 0.123129 0.205710 -0.776597 -0.595466 
-0.274291 0.059097 -0.035618 -0.976789 -0.202722 0.069190 
-0.064043 0.026039 0.315018 -0.684623 -0.034481 0.728081 
-0.084031 0.377898 0.159696 0.249751 0.963325 0.098125 
0.284390 0.263664 -0.064970 0.957957 0.237498 0.160974 
0.006693 -0.047805 0.189857 0.017386 -0.891545 0.452598 
-0.191350 -0.202432 0.116498 -0.804345 -0.577243 0.140783 
0.167071 0.379748 0.198066 0.811344 0.463413 -0.356327 
0.272375 0.134800 0.049837 0.980980 0.024823 0.192515 
0.100878 0.019609 0.285658 0.529252 -0.823108 0.205876 
0.017466 -0.026312 0.295295 0.167930 -0.022102 0.985551 
0.191603 0.159921 0.187046 -0.217850 0.713188 0.666261 
-0.138057 -0.238494 0.111792 -0.103330 -0.654556 -0.748919 
0.063928 0.272361 -0.350206 0.204038 0.291479 -0.934563 
0.147372 0.186040 0.138631 -0.219731 0.264070 0.939141 
0.060422 0.187146 0.200972 0.908245 -0.418427 0.003091 
0.196868 0.192203 0.179659 -0.300125 -0.599398 0.742056 
-0.168217 -0.086447 0.230214 -0.625483 -0.028511 0.779716 
0.282239 0.263043 -0.139394 0.938047 0.267401 -0.220372 
0.126331 -0.143463 0.180624 -0.462549 0.881844 -0.091646 
-0.163995 -0.157082 -0.101144 -0.967653 0.133757 -0.213906 
-0.156058 -0.153319 -0.120917 -0.872716 0.247271 -0.420979 
-0.072928 0.160880 0.180194 -0.584120 0.705551 0.401250 
-0.157960 0.208346 0.231248 -0.567174 -0.525637 0.634050 
-0.014195 0.101188 0.344457 -0.610708 0.558701 0.561150 
0.252485 0.342044 -0.072170 0.845897 0.531387 0.045662 
0.069185 0.011449 0.314061 0.620803 -0.635543 0.459008 
-0.080641 -0.006273 0.255900 -0.476829 0.080972 0.875259 
0.056817 -0.242754 0.223799 0.091392 -0.458470 0.883998 
0.092011 0.211969 0.158150 0.313288 -0.810109 0.495554 
0.157570 -0.114705 0.192804 -0.672923 0.698053 -0.244739 
0.080225 0.015210 0.272534 -0.473900 -0.775211 0.417693 
0.002658 0.202950 0.243634 0.201812 -0.043756 0.978446 
-0.146296 0.482999 0.327409 0.828173 0.423585 0.367022 
-0.037841 0.177982 0.236728 -0.354874 -0.792548 0.495916 
-0.193570 0.110415 0.247528 -0.448555 0.596927 0.665189 
-0.086675 -0.129965 0.262706 -0.025128 0.989039 0.145502 
0.076439 0.118838 -0.369791 0.251476 -0.069912 -0.965335 
0.023776 0.436419 -0.234897 0.112051 0.870824 -0.478655 
0.162305 -0.179769 0.047559 0.399370 -0.865297 -0.302928 
-0.054392 0.335152 0.217643 0.573516 0.485396 0.659901 
0.144525 -0.104724 0.224954 -0.858329 0.191124 -0.476176 
0.168114 0.331441 0.202781 0.924447 -0.247491 0.290077 
-0.185778 0.395922 -0.018376 -0.617844 0.763874 0.186453 
-0.188175 0.330042 -0.238726 -0.654808 0.478998 -0.584625 
-0.070151 0.026440 0.279286 0.845626 -0.520665 0.117576 
-0.171488 -0.159688 0.016678 -0.643817 -0.746503 -0.168027 
-0.133354 -0.248096 0.168588 -0.506946 -0.780862 0.365048 
0.024479 0.467383 -0.034036 0.079841 0.979962 0.182481 
-0.039521 0.030890 0.315380 -0.034685 -0.939016 -0.342120 
-0.227377 -0.403018 -0.236253 -0.844832 0.427195 -0.322123 
0.010727 0.199060 0.246013 -0.366553 0.183236 0.912175 
-0.284727 0.254270 -0.074570 -0.958047 0.268908 0.099172 
-0.232624 0.162073 -0.252967 -0.781836 0.089154 -0.617077 
-0.092790 -0.128824 0.139125 0.010936 0.606506 0.795004 
0.082808 -0.167659 0.265646 0.298103 -0.487929 0.820402 
-0.166981 -0.160885 -0.024053 -0.861861 -0.501538 -0.075203 
-0.068076 0.026046 0.295411 0.872415 -0.224137 -0.434344 
-0.101206 -0.233816 0.064571 -0.665757 -0.291402 0.686915 
-0.080971 -0.201227 0.235887 -0.159911 -0.561493 0.811883 
0.177587 -0.161749 0.017448 0.675327 -0.723516 -0.143029 
-0.035435 0.012436 0.354525 -0.613307 -0.496802 0.614037 
0.116746 0.053773 0.267139 0.922816 0.323420 0.209310 
0.255148 0.276378 -0.190202 0.790515 0.289859 -0.539507 
0.064675 0.332260 0.219848 -0.540145 0.448518 0.712092 
-0.161458 -0.195103 -0.035875 -0.977822 -0.057099 0.201503 
0.033677 0.150994 0.263246 0.829535 0.383220 0.406220 
0.008751 -0.123694 -0.241831 0.073969 0.030695 -0.996788 
0.197546 0.184671 0.175785 -0.447344 -0.179543 0.876155 
0.269776 -0.047705 0.021681 0.982032 -0.159907 -0.100211 
0.106262 -0.060118 0.246959 -0.228369 -0.912003 0.340733 
-0.155230 -0.092763 0.137960 0.797926 0.314804 0.514017 
0.198961 -0.443244 -0.123778 0.973350 -0.175175 0.147995 
-0.119786 0.407846 -0.222256 -0.491612 0.737691 -0.462742 
0.167343 0.356531 0.140790 0.795435 0.602766 0.062893 
-0.251919 0.328116 -0.070184 -0.854223 0.512162 0.089403 
0.040712 0.028350 0.289872 0.644827 -0.615874 0.452656 
0.178294 -0.226629 0.119233 0.654701 -0.751932 -0.077233 
0.139635 0.451479 0.316358 -0.844075 0.471451 0.255483 
-0.154435 0.489450 0.306780 0.339459 0.855694 -0.390583 
-0.086590 -0.214993 0.102139 0.012184 -0.716153 -0.697837 
0.147964 -0.091227 0.240339 -0.200427 -0.021104 0.979481 
-0.158114 -0.123513 -0.111652 -0.840134 -0.212745 -0.498914 
0.167071 0.379748 0.198066 0.811344 0.463413 -0.356327 
-0.095610 0.018761 0.253425 -0.559474 -0.797331 0.226388 
-0.205473 0.201345 0.179991 -0.629331 -0.252411 0.735004 
-0.136053 0.186624 0.137530 0.066277 0.176483 0.982070 
-0.170494 0.370069 0.136148 -0.552701 0.825377 0.115218 
0.165427 0.195669 -0.317405 0.651853 0.148276 -0.743708 
0.173493 0.481066 0.334343 -0.173866 0.958927 -0.224119 
-0.176365 0.409512 -0.053733 -0.564596 0.821842 0.076204 
-0.016672 0.356696 -0.321161 -0.113306 0.550703 -0.826975 
-0.193908 0.359075 0.080725 -0.680241 0.713183 0.169237 
-0.045970 -0.141825 0.285601 -0.249281 -0.089699 0.964268 
-0.024991 -0.255567 0.112435 -0.010194 -0.374170 -0.927304 
0.043051 0.309634 0.228844 -0.185097 0.562497 0.805814 
-0.167004 0.225035 0.227977 -0.652310 -0.246493 0.716751 
-0.172243 -0.188721 0.181054 -0.741659 -0.391146 0.544928 
0.184428 0.350039 -0.228900 0.631535 0.522526 -0.572827 
-0.244395 -0.109042 0.057559 -0.956064 -0.241265 0.166531 
-0.195932 0.182395 0.178344 0.193823 -0.009237 0.980993 
-0.070511 0.190924 0.148457 -0.405110 -0.296131 0.864981 
-0.123244 0.313681 0.239688 -0.384480 -0.308876 0.869926 
-0.227816 0.058156 0.204416 -0.943334 -0.046519 0.328569 
-0.106835 0.217074 0.268559 -0.265934 0.038684 0.963215 
0.185573 0.199144 0.180832 -0.433597 -0.871829 0.227833 
0.029094 0.010918 0.312560 0.880243 -0.447210 -0.158669 
0.123754 -0.143658 0.166816 -0.425062 0.879624 0.213505 
0.263556 0.013489 -0.052884 0.921053 -0.377039 -0.097481 
-0.048680 0.076130 -0.362066 -0.138689 -0.467507 -0.873042 
-0.168217 -0.086447 0.230214 -0.625483 -0.028511 0.779716 
-0.078892 -0.309259 0.055395 -0.251191 -0.253893 0.934046 
-0.072928 0.160880 0.180194 -0.584120 0.705551 0.401250 
-0.124977 0.393693 0.180447 -0.114623 0.836785 -0.535399 
-0.001687 -0.121786 0.279102 -0.013313 0.978071 -0.207847 
0.158637 0.383315 0.188242 0.592289 0.678753 -0.434152 
0.193471 -0.001421 0.217163 0.658672 -0.414029 0.628276 
-0.168134 0.082296 0.271325 0.016167 0.149375 0.988648 
-0.264063 0.012861 -0.020148 -0.965120 -0.231115 -0.123000 
-0.123244 0.313681 0.239688 -0.384480 -0.308876 0.869926 
0.184569 0.072711 0.269672 0.345390 -0.095905 0.933546 
0.119668 0.124306 -0.352613 0.454006 -0.131972 -0.881171 
0.135211 -0.056009 -0.207170 0.547495 -0.602063 -0.581179 
0.153478 -0.242293 0.161617 0.616815 -0.761130 0.200551 
0.056817 -0.242754 0.223799 0.091392 -0.458470 0.883998 
-0.027523 0.016569 -0.325960 -0.160761 -0.580206 -0.798447 
0.075040 0.029870 0.277588 -0.432877 -0.840916 0.324773 
-0.020881 -0.006175 0.288334 -0.406701 -0.001199 0.913561 
-0.123895 0.206191 0.256452 -0.432621 -0.621394 0.653229 
-0.229514 0.271174 0.135947 -0.924467 0.223344 0.308997 
-0.136053 0.186624 0.137530 0.066277 0.176483 0.982070 
0.006489 0.125622 0.326020 0.040654 0.753389 0.656317 
0.153938 -0.133477 -0.115493 0.850096 0.184936 -0.493088 
0.024667 -0.174721 -0.251997 0.183262 0.298802 -0.936554 
0.164876 0.212232 0.232737 0.626139 -0.371816 0.685349 
-0.096648 -0.148925 -0.201947 -0.682528 0.258560 -0.683595 
0.025518 0.176177 0.257952 0.591650 0.313524 0.742734 
0.223377 -0.157517 0.046318 0.395519 -0.706990 -0.586285 
