0.025194 0.210540 -0.276599 -0.040157 3.748947 -5.041020 
-0.402227 0.076377 0.372345 -6.283185 0.000000 0.000000 
0.383866 0.213986 -0.274346 0.029672 3.766173 -5.028387 
-0.223763 -0.410045 0.057541 0.000004 -3.410420 -3.504127 
-0.348159 0.404591 0.035721 0.000000 6.283185 0.000000 
-0.402227 0.060048 -0.223211 -6.283185 0.000000 0.000000 
-0.132129 -0.408757 -0.054750 0.000000 -6.283185 0.000000 
-0.191236 -0.274272 0.331721 -0.000015 4.719791 4.147527 
-0.402227 -0.222566 0.110660 -6.283185 0.000000 0.000000 
0.386933 0.314968 0.141923 0.035856 5.736864 2.561626 
-0.402227 -0.250804 0.315914 -6.031543 -0.125815 0.217926 
-0.312803 -0.336291 -0.375525 0.000003 -4.423058 -4.462619 
-0.119902 0.490267 -0.117755 0.000002 6.067104 -1.633606 
0.402206 -0.078546 -0.044072 6.283185 -0.000268 -0.000055 
-0.002208 0.389596 0.322967 0.948605 2.978930 1.372732 
-0.333267 -0.030124 0.404011 0.000000 0.000000 6.283185 
-0.324035 0.176305 -0.464572 0.000005 5.951858 2.013406 
0.402193 0.239379 -0.007518 6.283185 0.000816 0.000067 
0.402203 0.051979 -0.132061 6.283185 0.000077 -0.000495 
-0.402227 0.006618 0.169924 -6.283185 0.000000 0.000000 
-0.402227 -0.149936 0.066609 -6.283185 0.000000 0.000000 
0.402200 0.041138 -0.167849 6.283185 -0.000075 -0.000651 
-0.112600 0.340336 -0.372440 0.000004 4.433521 -4.452225 
0.402183 -0.181859 -0.253243 6.283185 -0.000641 -0.000644 
-0.000451 -0.278394 0.256216 6.283185 0.000000 0.000000 
-0.402227 -0.024737 0.221413 -6.283185 0.000000 0.000000 
-0.402227 -0.018455 0.017431 -6.283185 0.000000 0.000000 
-0.138928 0.331366 -0.381373 0.000003 4.433280 -4.452465 
-0.360358 0.345739 0.208261 0.000013 5.441252 3.141845 
-0.070740 0.079040 0.499492 0.000252 -0.963398 4.492644 
-0.052802 -0.422060 -0.070054 -0.000000 -1.232012 6.161215 
0.067597 0.111916 -0.327950 -0.014174 1.946343 -5.973609 
-0.207501 -0.106419 0.492657 0.000012 -1.690799 6.051414 
-0.402227 -0.072065 0.076627 -6.283186 0.000000 0.000000 
0.402181 0.086145 -0.315805 6.283185 0.000392 -0.000852 
-0.351088 0.227349 0.334460 -0.000005 3.142099 5.441105 
0.402195 0.153832 -0.161355 6.283185 0.000516 -0.000325 
0.015467 -0.177816 0.290107 -0.038047 -3.289878 5.352213 
-0.114800 0.452601 -0.072231 -0.000000 1.232254 6.161166 
0.402205 -0.103801 0.006421 6.283185 -0.000432 -0.000092 
-0.402227 -0.134930 0.185304 -6.283185 0.000000 0.000000 
-0.402227 0.018622 0.319920 -6.283185 0.000000 0.000000 
-0.064231 -0.176378 0.473106 0.000001 -1.837470 5.774552 
0.261095 -0.083269 -0.333484 -0.010126 -1.568089 -6.083941 
0.401482 -0.039892 -0.340301 2.872603 -0.345207 -3.471997 
-0.402227 0.040224 -0.073886 -6.283185 0.000000 0.000000 
-0.172679 0.487141 0.128768 0.000000 6.066951 1.634174 
0.244985 0.307834 0.157231 -0.015630 5.586812 2.874413 
-0.095145 -0.066004 -0.429162 0.000000 6.161079 -1.232685 
-0.171273 0.479912 0.155611 0.000021 6.067064 1.633754 
-0.000451 0.069618 0.390667 6.283186 0.000000 0.000000 
-0.247534 -0.350458 -0.212631 -0.000002 -5.441636 -3.141181 
-0.168498 0.038083 0.404011 0.000000 0.000000 6.283185 
-0.269977 0.350977 -0.361844 0.000004 4.433384 -4.452362 
-0.388883 0.492605 -0.080232 0.000003 1.232200 6.161177 
-0.342362 -0.482218 0.071974 0.000001 -1.232076 -6.161201 
-0.379164 0.198381 -0.356534 -0.000006 3.141533 -5.441432 
-0.138285 0.197739 -0.356904 -0.000010 3.141513 -5.441443 
-0.330164 0.362969 -0.183747 0.000012 5.441623 -3.141204 
0.013578 0.056032 -0.341065 0.006080 0.925344 -6.214232 
0.168550 0.289258 0.188497 -0.050351 5.258526 3.437594 
-0.023597 -0.277713 0.335637 0.000004 4.719976 4.147317 
0.332778 0.279903 -0.208248 -0.014091 5.047313 -3.741076 
-0.000451 -0.350210 -0.047816 6.283185 0.000000 0.000000 
-0.402227 0.218234 0.167063 -6.283185 0.000000 0.000000 
-0.375955 0.072772 -0.459971 -0.000000 -6.161195 -1.232106 
-0.402227 0.309575 0.059811 -6.283185 0.000000 0.000000 
-0.330120 -0.357244 -0.200875 -0.000005 -5.441804 -3.140889 
-0.235134 0.480201 0.077171 0.000001 1.232198 -6.161177 
0.165141 -0.212416 0.266722 -0.012213 -3.918268 4.910877 
-0.189927 0.391866 0.152725 0.000000 -2.013606 5.951790 
0.402199 -0.168213 0.023997 6.283185 -0.000588 0.000089 
-0.153827 -0.121067 -0.489860 -0.034817 -1.671885 -6.056508 
-0.000453 0.380605 0.051647 6.283185 0.000166 -0.001135 
-0.094571 0.161659 -0.421282 -0.000001 5.951852 2.013423 
-0.000034 -0.215676 -0.262554 2.838341 -2.159583 -2.557896 
-0.027802 0.490238 -0.117862 -0.000001 6.067102 -1.633610 
-0.372179 -0.187336 0.359971 -0.000006 -3.141446 5.441483 
-0.163554 0.180974 0.361239 -0.000024 3.142133 5.441086 
-0.402227 0.110502 0.461242 -6.283185 0.000000 0.000000 
0.343884 0.008975 -0.342691 0.088205 0.203152 -6.278931 
0.047682 0.121599 -0.324543 -0.023048 2.138797 -5.906907 
-0.343976 0.072136 -0.456793 0.000001 -6.161193 -1.232119 
-0.402227 -0.175827 -0.301205 -6.283185 0.000000 0.000000 
-0.018975 0.346379 0.281871 -0.000007 4.147583 -4.719743 
0.128908 -0.337549 -0.027268 -0.006309 -6.267997 -0.431068 
-0.000451 -0.157539 0.395643 3.625994 -2.517137 -0.851104 
0.359503 -0.221197 -0.262715 -0.033506 -4.149464 -4.717443 
-0.321613 -0.328033 -0.383709 -0.000041 -4.422857 -4.462819 
-0.402227 0.057880 0.096164 -6.283185 0.000000 0.000000 
0.402198 -0.169904 -0.093683 6.283185 -0.000553 -0.000297 
-0.018057 0.028538 -0.409356 0.000000 0.000000 -6.283185 
-0.402227 0.099043 -0.240597 -6.283185 0.000000 0.000000 
-0.000451 0.190299 -0.330135 6.283185 0.000000 0.000000 
0.256618 0.052019 -0.340264 0.066239 0.820663 -6.228575 
-0.319162 -0.192465 0.357010 -0.000002 -3.141459 5.441475 
-0.061491 -0.408757 0.028063 0.000000 -6.283186 0.000000 
-0.132685 0.217918 0.339906 -0.000003 3.141877 5.441234 
-0.402227 -0.321746 0.129407 -6.283185 0.000000 0.000000 
-0.402227 0.121021 -0.357138 -6.283185 0.000000 0.000000 
0.157894 0.173688 0.297084 -0.087911 3.069697 5.480526 
-0.243004 0.477114 0.166000 -0.000001 6.066953 1.634164 
0.139328 -0.328727 0.083566 -0.025718 -6.108094 1.470203 
0.102862 -0.338387 0.001088 -0.015092 -6.282694 0.040452 
-0.402227 0.330747 0.178983 -6.283185 0.000000 0.000000 
-0.402227 0.122519 0.308614 -6.283185 0.000000 0.000000 
-0.101556 0.332807 0.379115 0.005890 4.403981 4.481443 
-0.402227 -0.091333 0.019231 -6.283185 0.000000 0.000000 
-0.402227 0.313150 -0.193885 -6.283185 0.000000 0.000000 
-0.402227 0.111348 -0.017576 -6.283185 0.000000 0.000000 
-0.027925 -0.153760 0.379355 -0.000001 -4.487593 1.871032 
-0.032123 -0.418241 0.059180 0.000000 -1.308574 -6.067893 
0.035186 -0.318159 -0.116937 -0.065301 -5.891433 -2.181402 
-0.172066 0.205788 0.346910 0.000004 3.141967 5.441182 
0.231687 -0.246201 0.235875 -0.010937 -4.558186 4.323462 
-0.402227 -0.269150 0.012766 -6.283185 0.000000 0.000000 
-0.402227 -0.261610 -0.132795 -6.283186 0.000000 0.000000 
0.302753 0.342801 -0.051871 0.026171 6.229003 -0.815053 
-0.372657 0.496318 0.094694 -0.000025 6.066995 1.634009 
-0.054106 0.448641 -0.071439 -0.000001 1.232254 6.161165 
-0.344710 -0.487554 -0.124863 -0.000002 -6.055769 -1.675137 
-0.402227 0.099932 -0.308229 -6.283185 0.000000 0.000000 
-0.402227 -0.454336 -0.138156 -6.283186 0.000000 0.000000 
0.114724 -0.231097 0.250399 -0.027095 -4.281075 4.597649 
-0.000451 -0.366733 -0.155892 6.283185 0.000000 0.000000 
-0.402227 0.284024 -0.146876 -6.283185 0.000000 0.000000 
-0.144676 0.026722 -0.409356 0.000000 0.000000 -6.283185 
0.402206 -0.077238 0.042354 6.283185 -0.000271 0.000136 
0.183436 0.215291 0.269052 -0.066314 3.908063 4.919097 
-0.082370 -0.416077 -0.164858 -0.000000 2.013431 -5.951849 
-0.402227 0.455477 0.104607 -6.283185 0.000000 0.000000 
0.402196 -0.041397 -0.209113 6.283185 -0.000214 -0.000669 
-0.047924 0.330243 0.267690 0.000015 4.147663 -4.719673 
-0.176680 0.012242 -0.409356 0.000000 0.000000 -6.283185 
-0.027317 -0.343580 0.219182 -0.000004 -5.441168 3.141992 
-0.051346 0.150779 -0.389118 -0.000004 5.235581 0.113464 
-0.000451 -0.421766 0.128600 6.283185 0.000000 0.000000 
-0.199553 -0.448018 -0.175664 -0.000001 2.013458 -5.951841 
0.080335 0.119495 0.320102 -0.080583 2.110824 5.917168 
-0.165768 0.070054 -0.446379 -0.000004 -6.161208 -1.232045 
-0.373231 -0.069456 -0.446417 0.000005 6.161086 -1.232657 
0.241792 -0.010974 0.340191 0.062046 -0.332081 6.273815 
-0.003154 0.274598 0.343926 1.651730 -3.478734 3.057496 
0.173184 -0.284538 -0.187305 -0.044996 -5.312100 -3.354528 
-0.402227 0.164882 0.039585 -6.283185 0.000000 0.000000 
-0.018435 -0.056266 0.404011 0.000000 0.000000 6.283185 
-0.145781 0.404591 -0.004802 0.000000 6.283185 0.000000 
0.349009 0.332604 -0.100908 0.030424 6.051375 -1.689047 
-0.246436 -0.346184 0.214673 -0.000002 -5.441156 3.142012 
0.402183 0.105750 0.296102 6.283185 0.000184 0.000831 
0.402192 0.104019 0.217050 6.283185 0.000386 0.000639 
0.402199 0.105103 0.141927 6.283186 0.000484 0.000354 
-0.134961 -0.408757 0.054974 -0.000000 -4.950685 -1.625361 
-0.273865 0.430497 -0.166211 0.000011 -2.013536 -5.951814 
-0.082579 0.349393 0.284520 -0.000002 4.147548 -4.719773 
0.016369 0.267082 -0.222482 -0.050028 4.861712 -3.978101 
-0.367874 -0.355907 0.355495 -0.000001 -4.493683 4.391496 
-0.402227 0.307039 -0.015516 -6.283185 0.000000 0.000000 
0.233852 0.199025 -0.285474 0.004974 3.496686 -5.218871 
0.085889 -0.334003 0.055285 -0.034984 -6.208300 0.962405 
-0.211454 0.053288 -0.409356 0.000000 0.000000 -6.283185 
-0.115182 -0.279861 0.338082 -0.000009 4.719877 4.147430 
-0.124864 -0.487326 0.072995 0.000000 -1.232078 -6.161201 
-0.333559 0.370546 -0.170621 0.000002 5.441807 -3.140884 
-0.282207 0.390596 0.322038 0.001232 4.426332 0.640515 
-0.000696 0.366459 -0.133571 6.282975 -0.047456 0.018899 
-0.402227 0.392881 -0.102028 -6.283185 0.000000 0.000000 
-0.351815 -0.323191 -0.388508 -0.000008 -4.423017 -4.462660 
0.402184 0.046138 -0.300882 6.283185 0.000233 -0.001042 
0.402187 -0.243223 0.147837 6.283185 -0.000677 0.000451 
0.401844 0.329762 0.101744 3.036274 3.167027 0.957654 
-0.344118 0.472585 0.180035 -0.000000 1.628934 4.005537 
-0.000451 0.118145 -0.379370 6.283185 0.000000 0.000000 
-0.379411 0.178970 -0.473836 0.000005 3.637264 -2.304066 
-0.396756 -0.154595 -0.402638 -0.164289 -5.796380 1.960222 
-0.302126 -0.344243 -0.367643 -0.000005 -4.423148 -4.462531 
0.402183 -0.288286 0.115166 6.283185 -0.000847 0.000298 
0.190211 -0.049848 -0.340498 -0.008285 -1.013043 -6.200281 
-0.000451 -0.403364 0.085574 6.283185 0.000000 0.000000 
-0.402084 -0.226961 -0.342434 -3.057318 -1.613117 -2.793559 
-0.080601 -0.213017 -0.350485 -0.000003 -3.142118 -5.441094 
-0.214626 -0.015346 0.404011 0.000000 0.000000 6.283185 
0.145987 -0.305775 -0.148383 -0.036320 -5.670290 -2.705787 
-0.402227 -0.307824 -0.364240 -6.283185 0.000000 0.000000 
-0.256502 -0.193180 -0.361941 -0.000000 -3.141969 -5.441180 
-0.079565 -0.166829 0.418919 0.000022 -5.952169 -2.012486 
-0.000451 -0.325314 -0.376229 6.283185 0.000000 0.000000 
0.376382 0.342467 0.041998 0.055460 6.237620 0.749338 
-0.402227 -0.156436 0.373165 -5.074246 -0.604461 1.047010 
-0.222582 -0.367942 0.176993 -0.000003 -5.441186 3.141960 
0.167847 -0.098554 -0.328750 -0.043377 -1.849406 -6.004424 
-0.030199 -0.406682 -0.161680 0.000001 2.013425 -5.951851 
0.402207 -0.033369 0.034183 6.283186 -0.000119 0.000154 
-0.402227 0.233366 -0.304623 -6.283185 0.000000 0.000000 
-0.402227 0.324742 0.162493 -6.283185 0.000000 0.000000 
-0.359342 0.485280 -0.136277 -0.000005 6.067119 -1.633550 
-0.308429 -0.281296 0.339715 0.000067 4.719938 4.147361 
-0.101248 0.339079 0.275456 0.000050 4.147759 -4.719588 
-0.169131 0.376793 -0.336138 -0.000005 4.433401 -4.452344 
0.402204 -0.107304 0.022474 6.283185 -0.000321 0.000289 
-0.209866 0.366937 -0.176874 0.000002 5.441673 -3.141117 
-0.386315 -0.474356 -0.172578 -0.000000 -6.055827 -1.674926 
-0.120365 0.404591 0.012927 0.000000 6.283185 0.000000 
-0.359801 0.351315 -0.285335 -0.000000 4.148306 4.719108 
0.200899 -0.338407 -0.006573 0.008555 -6.282100 -0.104736 
0.013557 -0.003302 -0.344505 -0.034008 -0.222741 -6.278758 
-0.402227 0.179159 0.192750 -6.283186 0.000000 0.000000 
-0.348697 0.199499 -0.355888 0.000003 3.141582 -5.441404 
-0.402227 -0.059484 0.318746 -6.283185 0.000000 0.000000 
-0.402227 0.030951 -0.046366 -6.283185 0.000000 0.000000 
0.298533 -0.329131 -0.082217 0.032256 -6.126003 -1.394546 
0.107690 0.179772 0.292663 -0.102736 3.247000 5.376787 
-0.366486 0.332324 0.380558 0.046497 4.248479 4.628889 
0.114405 -0.115081 0.320988 -0.008301 -2.139620 5.906813 
0.027621 -0.160089 -0.301182 -0.129450 -2.990957 -5.523194 
0.083625 -0.214992 -0.264918 -0.080966 -4.015795 -4.831146 
-0.046048 -0.333171 -0.242582 -0.000010 -5.441827 -3.140851 
-0.346279 -0.168576 -0.443979 0.000031 -5.951970 2.013075 
-0.043715 -0.173215 0.437803 0.000045 -5.952171 -2.012477 
0.093725 -0.228637 -0.253118 -0.080501 -4.263540 -4.613617 
-0.327463 0.351861 0.197660 -0.000022 5.441188 3.141956 
-0.402227 0.192421 -0.352231 -5.143454 0.569851 -0.987071 
-0.402227 -0.455461 0.138638 -6.283185 0.000000 0.000000 
0.029873 0.326412 0.111865 -0.064683 5.903615 2.148345 
-0.382043 0.342600 -0.219038 -0.000010 5.441800 -3.140897 
-0.045752 -0.356048 0.197590 -0.000003 -5.441186 3.141959 
-0.082450 0.489653 -0.120035 0.000002 6.067111 -1.633580 
-0.090666 0.424171 -0.164071 -0.000005 -2.013514 -5.951821 
0.020178 0.227157 0.256577 -0.102462 4.115167 4.746346 
0.350765 -0.236641 -0.248286 -0.032425 -4.404885 -4.479571 
-0.369883 -0.064078 -0.419534 0.000002 6.161080 -1.232681 
-0.000451 -0.404309 0.100016 6.283185 0.000000 0.000000 
0.402188 0.277672 -0.005865 6.283185 0.000887 -0.000067 
0.000903 -0.326085 0.089866 2.441016 -3.650907 0.964356 
-0.402227 -0.263347 -0.005259 -6.283185 0.000000 0.000000 
-0.212712 0.374491 0.158469 -0.000003 5.441344 3.141686 
-0.146727 0.222700 0.337145 0.000005 3.141915 5.441212 
-0.284046 0.404591 -0.018351 0.000000 6.283185 0.000000 
-0.402227 0.271896 -0.037599 -6.283186 0.000000 0.000000 
0.378467 0.167086 0.302080 0.004211 2.893953 5.576184 
-0.036413 -0.302837 -0.376656 0.000002 4.719260 -4.148132 
-0.028386 0.404591 0.008664 0.000000 6.283185 0.000000 
-0.022602 0.360627 -0.293521 -0.000010 4.148149 4.719245 
0.173321 -0.336513 -0.039447 0.005003 -6.250497 -0.636610 
-0.373660 0.113675 0.491854 0.054427 1.414925 6.121489 
-0.031132 0.151605 -0.391559 0.000007 5.951865 2.013387 
-0.292537 -0.478932 -0.156032 0.000006 -6.055758 -1.675175 
-0.288958 0.497917 0.088759 -0.000007 6.066967 1.634114 
-0.402227 0.160557 0.173644 -6.283185 0.000000 0.000000 
0.402181 -0.283628 0.165970 6.283185 -0.000768 0.000350 
-0.026446 0.248994 -0.327313 0.000004 3.141521 -5.441440 
-0.328854 -0.494619 -0.099322 -0.000021 -6.055843 -1.674868 
-0.284166 -0.346189 0.214665 0.000002 -5.441156 3.142012 
0.160949 0.005759 -0.344550 0.033758 0.088262 -6.282094 
-0.402227 0.005741 -0.316799 -6.283185 0.000000 0.000000 
-0.193583 0.281563 -0.350099 -0.000155 -4.719334 -4.148048 
0.402196 0.186758 -0.098705 6.283185 0.000573 -0.000376 
-0.000451 -0.109471 -0.438561 6.283185 0.000000 0.000000 
-0.000451 -0.390426 0.117989 6.283185 0.000000 0.000000 
0.362025 0.330003 -0.109568 0.032865 6.006168 -1.843556 
0.160372 0.157851 0.305332 -0.077038 2.718834 5.663025 
0.076938 -0.334059 -0.057289 -0.025178 -6.205197 -0.982140 
-0.054762 0.324887 0.244374 0.000002 5.441306 3.141753 
0.402187 -0.277075 0.041932 6.283185 -0.000870 0.000167 
-0.402227 0.092807 0.280043 -6.283185 0.000000 0.000000 
0.189535 -0.182181 0.288114 -0.003779 -3.334004 5.324823 
0.247377 0.295605 0.179228 -0.020390 5.384348 3.237733 
-0.402227 -0.351547 0.041131 -6.283185 0.000000 0.000000 
0.080790 0.116520 -0.326420 -0.011326 2.030074 -5.945116 
-0.402227 0.270466 -0.171221 -6.283185 0.000000 0.000000 
0.370483 0.345160 0.007526 0.046812 6.279273 0.209952 
-0.290324 0.169421 0.453455 0.000002 5.951952 -2.013126 
-0.402227 0.013469 -0.253573 -6.283185 0.000000 0.000000 
-0.034338 0.476067 -0.170498 -0.000005 6.067147 -1.633443 
-0.317494 -0.408757 -0.005077 0.000000 -6.283186 0.000000 
-0.402227 -0.106761 0.380772 -6.283185 0.000000 0.000000 
-0.402227 -0.138472 -0.087263 -6.283185 0.000000 0.000000 
0.188161 0.331661 0.099108 -0.005590 6.006738 1.840296 
0.048166 0.080104 0.331584 -0.067398 1.510677 6.098052 
-0.370608 0.266293 -0.332726 0.000021 -4.719341 -4.148040 
-0.334777 -0.068648 0.413279 -0.000005 6.160940 1.233386 
-0.215501 -0.188522 -0.364631 0.000002 -3.141966 -5.441182 
0.304086 -0.246854 0.235225 0.004730 -4.557326 4.324546 
-0.402227 0.446176 -0.154962 -6.283185 0.000000 0.000000 
-0.149051 -0.126103 0.487157 0.000004 -1.691234 6.051292 
-0.402227 -0.419148 0.073619 -6.283185 0.000000 0.000000 
0.327615 0.296893 0.177288 0.003170 5.417436 3.181964 
-0.000451 -0.302965 -0.331227 6.283185 0.000000 0.000000 
-0.290625 -0.152725 -0.480646 -0.005185 -1.639204 -6.065590 
-0.048980 -0.016705 0.404011 0.000000 0.000000 6.283185 
0.028440 0.277196 -0.209690 -0.049421 5.048434 -3.739177 
0.308139 0.247831 0.241179 -0.024127 4.463047 4.421527 
-0.182202 -0.168945 0.425177 -0.000020 -5.952102 -2.012682 
-0.000451 -0.245310 0.236818 3.522945 -1.965023 1.868543 
-0.010432 0.404591 -0.015200 0.000000 6.283185 0.000000 
0.371497 0.284615 0.196755 0.002957 5.203656 3.520435 
-0.311439 -0.069892 0.419496 -0.000009 6.160933 1.233422 
0.330656 0.201982 -0.283205 0.026896 3.542833 -5.187638 
-0.181158 0.196330 0.352372 -0.000006 3.141966 5.441183 
0.402186 -0.016261 -0.286724 6.283186 -0.000119 -0.000805 
0.270137 0.141804 -0.316465 0.031559 2.458123 -5.781273 
-0.402227 0.257850 -0.086051 -6.283185 0.000000 0.000000 
-0.339232 -0.384282 0.305305 0.000005 -4.147427 -4.719879 
0.345239 0.060490 0.336143 0.050870 0.922557 6.214401 
-0.000451 -0.345090 -0.282813 3.290781 -1.975305 2.247788 
-0.379728 -0.121383 0.488476 0.000006 -1.691228 6.051295 
0.402206 0.064345 -0.045954 6.283185 0.000176 -0.000112 
-0.402227 -0.142407 -0.306004 -6.283185 0.000000 0.000000 
-0.402227 0.198698 0.094785 -6.283185 0.000000 0.000000 
0.028393 -0.337793 0.013154 -0.036116 -6.277319 0.260786 
0.335377 0.044660 -0.340207 0.088233 0.708352 -6.242218 
-0.402227 0.047769 0.022620 -6.283185 0.000000 0.000000 
-0.115263 0.078154 -0.486884 -0.000014 -6.161201 -1.232078 
0.402182 -0.311705 0.059005 6.283185 -0.000774 0.000227 
-0.285794 -0.025233 -0.409356 0.000000 0.000000 -6.283186 
-0.226343 -0.082785 0.483898 0.000001 6.160934 1.233413 
-0.301545 -0.209769 -0.352361 -0.000006 -3.142234 -5.441028 
-0.313984 -0.140390 0.483164 -0.000001 -1.691232 6.051293 
-0.402227 -0.139576 0.435848 -6.283185 0.000000 0.000000 
0.145329 -0.337980 0.018356 -0.012777 -6.274786 0.315078 
-0.327415 0.365951 0.299069 0.000033 4.147680 -4.719658 
-0.042892 0.367805 0.300700 0.000012 4.147718 -4.719624 
-0.000451 0.320443 0.157644 6.283185 0.000000 0.000000 
-0.402227 0.007226 -0.022457 -6.283185 0.000000 0.000000 
0.045383 -0.338153 -0.007721 -0.028520 -6.282089 -0.096542 
0.129514 -0.018386 -0.344056 0.003702 -0.406527 -6.269607 
-0.402227 -0.190212 -0.105765 -6.283185 0.000000 0.000000 
0.402206 -0.072390 0.027923 6.283185 -0.000214 0.000077 
-0.392456 -0.408757 -0.029528 0.000000 -6.283185 0.000000 
0.402195 0.216309 0.022293 6.283185 0.000705 -0.000101 
0.338955 -0.329451 0.080031 0.031977 -6.129345 1.380046 
-0.057000 -0.176426 0.447301 0.000010 -5.952119 -2.012635 
-0.320846 -0.332600 -0.243571 0.000004 -5.441821 -3.140862 
-0.402227 0.022666 -0.017124 -6.283185 0.000000 0.000000 
-0.402227 -0.317100 -0.063229 -6.283185 0.000000 0.000000 
-0.129880 0.161994 0.478308 0.014223 1.639426 6.065361 
-0.332624 0.159216 0.423279 0.000001 5.952090 -2.012718 
-0.402227 -0.106419 0.478220 -6.283185 0.000000 0.000000 
-0.319348 -0.355489 -0.356496 0.000007 -4.423011 -4.462667 
-0.024030 0.477006 -0.077112 0.000000 1.232198 6.161177 
-0.275911 -0.173537 -0.458649 0.000016 -5.952032 2.012891 
0.112711 0.345448 -0.024138 -0.020904 6.272137 -0.362606 
0.029511 -0.284120 -0.184889 -0.096732 -5.292911 -3.383555 
-0.024656 0.462563 -0.177059 -0.000021 -2.013423 -5.951852 
-0.338435 -0.222528 0.339653 -0.000001 -3.141381 5.441520 
0.316149 0.195650 0.285055 -0.018709 3.539759 5.190347 
0.402181 -0.310136 0.079981 6.283185 -0.000815 0.000252 
-0.371791 -0.372849 0.338161 0.000015 -4.493569 4.391612 
0.112583 -0.174753 -0.294473 -0.102905 -3.308321 -5.339325 
-0.245405 0.399174 -0.155616 -0.000000 -2.013391 -5.951863 
-0.402227 0.206968 -0.202284 -6.283185 0.000000 0.000000 
-0.362199 -0.109658 -0.492159 -0.013014 -1.630639 -6.067887 
0.248928 -0.076956 -0.335048 -0.004608 -1.474332 -6.107280 
-0.361056 0.404487 0.156995 0.000004 -2.013684 5.951764 
-0.402227 -0.298714 -0.129440 -6.283185 0.000000 0.000000 
-0.000468 0.277747 -0.245297 6.283175 0.010627 0.000295 
-0.370565 0.404591 0.049881 0.000000 6.283185 0.000000 
-0.045182 -0.408757 0.029139 0.000000 -6.283185 0.000000 
-0.216611 0.169445 -0.444295 0.000000 5.951841 2.013453 
-0.301299 0.079303 0.499447 0.002562 -0.836228 4.613453 
0.162305 0.306785 0.158548 -0.039184 5.561602 2.922636 
-0.000451 -0.236985 0.273229 6.283186 0.000000 0.000000 
-0.049405 -0.458219 -0.179114 -0.000006 2.013353 -5.951876 
0.242417 0.322421 0.125337 -0.002883 5.833095 2.334080 
-0.261160 0.145573 0.382935 0.000000 4.829014 0.966148 
-0.402227 0.201070 -0.171175 -6.283185 0.000000 0.000000 
-0.354295 -0.158040 -0.412827 -0.000020 -5.952011 2.012955 
-0.120932 -0.026948 0.404011 0.000000 0.000000 6.283185 
0.402197 0.074528 -0.186180 6.283185 0.000361 -0.000574 
-0.370991 -0.379063 -0.312276 -0.000008 -4.147414 4.719891 
-0.189486 0.064854 0.438906 0.000006 -6.161156 1.232301 
0.258481 -0.326789 0.091923 0.006693 -6.073637 1.606717 
-0.353700 0.336032 -0.230418 0.000002 5.441672 -3.141119 
0.023206 0.263290 0.220027 -0.107324 4.791691 4.062181 
-0.358996 -0.286542 -0.358117 0.000012 4.719303 -4.148084 
0.358424 0.105501 -0.328357 0.081593 1.685096 -6.051963 
0.251553 0.331464 0.099650 0.010942 6.010192 1.829457 
-0.364877 0.158712 0.479742 0.009476 1.820213 6.013706 
-0.402227 -0.092396 -0.409135 -6.283185 0.000000 0.000000 
-0.159569 0.158679 -0.379455 -0.000006 3.141547 -5.441425 
0.033616 -0.336335 -0.038191 -0.033036 -6.250053 -0.639681 
0.093586 -0.303321 0.152248 -0.036698 -5.629177 2.789624 
0.402180 0.336092 -0.045459 6.283185 0.000928 0.000025 
-0.120489 0.478424 -0.077396 0.000004 1.232204 6.161176 
0.370555 -0.052405 -0.339245 0.061270 -0.887901 -6.219286 
-0.099901 -0.454792 0.066489 -0.000002 -1.232089 -6.161200 
-0.402227 -0.449744 0.121716 -6.283185 0.000000 0.000000 
-0.337397 0.477140 -0.166510 0.000001 6.067186 -1.633301 
-0.073157 -0.172535 0.368515 0.000002 -3.141618 5.441383 
-0.013201 0.171405 -0.450089 0.000009 5.951857 2.013410 
-0.402227 -0.349685 0.303324 -6.283185 0.000000 0.000000 
0.252852 0.243481 0.245032 -0.046163 4.381462 4.502052 
-0.286110 -0.379874 0.156329 -0.000000 -5.441304 3.141755 
0.402199 -0.152755 0.098387 6.283186 -0.000510 0.000391 
0.126384 -0.312693 0.132175 -0.035252 -5.792925 2.431598 
0.349941 0.337278 0.074946 0.049012 6.144362 1.310738 
-0.402227 0.154786 -0.127034 -6.283185 0.000000 0.000000 
0.402182 -0.064126 -0.313536 6.283185 -0.000039 -0.000901 
0.191034 -0.242263 0.239858 -0.013930 -4.490874 4.393286 
-0.382859 -0.408757 0.050574 0.000000 -6.283185 0.000000 
-0.141132 0.319268 -0.392999 0.000007 -0.381571 -4.291985 
0.106059 -0.010488 0.341137 0.022168 -0.276657 6.276675 
-0.271358 0.267828 -0.334473 0.000073 -4.719323 -4.148060 
-0.328148 -0.446848 0.064900 -0.000005 -1.232077 -6.161201 
-0.402227 -0.214149 -0.175997 -6.283185 0.000000 0.000000 
-0.393608 0.449444 0.172206 -0.000001 -2.013670 5.951768 
-0.395315 0.496518 -0.094536 -0.000004 6.067163 -1.633385 
-0.114094 0.326466 -0.246990 0.000006 5.441866 -3.140781 
-0.402227 0.171994 -0.242704 -6.283185 0.000000 0.000000 
-0.157354 0.483800 0.077891 0.000003 1.232192 -6.161179 
0.402193 -0.083242 0.218906 6.283185 -0.000384 0.000628 
-0.296012 0.154544 -0.400248 -0.000009 5.951850 2.013429 
-0.402227 0.145038 0.133550 -6.283185 0.000000 0.000000 
-0.170408 -0.495019 0.097500 -0.019350 -6.108818 1.469501 
-0.008959 -0.438356 -0.172395 -0.000013 2.013459 -5.951839 
-0.000451 0.156133 0.319129 6.283185 0.000000 0.000000 
-0.069862 0.497519 0.080634 -0.000002 2.602482 -3.951887 
-0.388036 -0.357778 -0.199950 0.000004 -5.441806 -3.140886 
0.086801 0.176358 -0.299257 -0.020761 3.113900 -5.456229 
-0.402227 0.304737 0.036228 -6.283185 0.000000 0.000000 
0.402189 -0.231342 -0.130917 6.283185 -0.000711 -0.000451 
-0.402227 0.367479 -0.343416 -3.887959 1.690105 -1.697273 
0.402189 0.018834 0.264279 6.283185 0.000009 0.000947 
-0.265111 -0.110294 -0.492278 -0.023289 -1.646170 -6.063646 
-0.049769 -0.408757 -0.000681 0.000000 -6.283186 0.000000 
-0.396842 0.197925 0.351450 -0.385144 2.949368 5.107649 
-0.284677 0.404591 0.004363 0.000000 6.283185 0.000000 
0.402186 -0.178207 0.231474 6.283185 -0.000451 0.000793 
-0.000451 0.139732 -0.393986 6.283185 0.000000 0.000000 
0.402180 0.334478 -0.072193 4.589450 1.691203 -0.322206 
-0.194068 -0.324701 -0.257258 0.000016 -5.239418 -1.911366 
-0.402227 0.339902 0.018963 -6.283185 0.000000 0.000000 
-0.121027 0.074842 -0.470321 0.000001 -6.161205 -1.232056 
0.043504 0.067367 0.334468 -0.065878 1.300438 6.146337 
-0.402227 0.200061 -0.157160 -6.283185 0.000000 0.000000 
-0.152099 0.033599 0.404011 0.000000 0.000000 6.283185 
-0.154783 -0.483553 -0.139327 -0.000006 -6.055859 -1.674813 
-0.402227 -0.162540 -0.147183 -6.283185 0.000000 0.000000 
0.018169 0.334042 0.087568 -0.062981 6.057565 1.664819 
-0.402227 -0.256181 0.057554 -6.283185 0.000000 0.000000 
-0.105961 -0.033598 0.404011 0.000000 0.000000 6.283185 
0.266739 -0.011122 -0.343720 0.056225 -0.148983 -6.280793 
-0.320407 -0.460408 -0.077722 -0.000003 -1.232053 6.161206 
-0.045102 -0.189108 0.358948 -0.000009 -3.141438 5.441488 
-0.059373 -0.324942 -0.264715 -0.000020 -4.468758 2.769435 
-0.011759 0.151492 -0.481158 0.000007 1.617546 -6.071405 
-0.354886 0.074145 0.485359 -0.000002 -6.161162 1.232271 
0.402183 0.198986 -0.247010 6.283186 0.000554 -0.000815 
-0.402227 -0.117002 -0.371776 -6.283185 0.000000 0.000000 
-0.402227 -0.350091 -0.361727 -3.188489 -2.178571 -2.197936 
-0.105928 0.492065 0.110487 -0.000021 6.067000 1.633991 
0.402185 0.090615 -0.287188 6.283185 0.000024 -0.000865 
-0.183306 -0.408757 -0.038857 0.000000 -6.283185 0.000000 
0.051007 -0.224187 -0.256377 -0.091085 -4.194385 -4.676491 
-0.402227 0.277002 -0.328996 -6.283185 0.000000 0.000000 
0.402188 0.257099 -0.109649 6.283185 0.000844 -0.000269 
-0.136021 0.356976 0.291184 0.000002 4.147567 -4.719757 
-0.079313 -0.329114 -0.249611 0.000018 -5.441843 -3.140822 
-0.196354 -0.452849 0.066100 -0.000006 -1.232087 -6.161200 
0.190771 -0.288215 0.180522 -0.026236 -5.349802 3.293750 
0.402188 -0.249996 0.103514 6.283185 -0.000848 0.000266 
-0.000451 -0.417333 -0.143665 6.283185 0.000000 0.000000 
-0.402227 -0.193810 0.342460 -6.283185 0.000000 0.000000 
-0.090549 -0.329470 0.243620 -0.000014 -5.441315 3.141735 
0.402180 0.289132 0.173154 6.106460 0.158028 0.091391 
-0.299126 0.176704 0.363705 0.000003 3.142175 5.441061 
-0.120662 0.246307 -0.328864 -0.000001 3.141617 -5.441383 
-0.012669 -0.216042 0.343397 -0.000000 -3.141436 5.441488 
-0.084229 -0.279842 -0.350495 -0.000001 4.719328 -4.148055 
0.028596 -0.333916 -0.056442 -0.037674 -6.204429 -0.987143 
0.119021 -0.128460 0.315794 -0.010696 -2.400030 5.805428 
-0.402227 0.145552 0.362869 -6.283185 0.000000 0.000000 
-0.198450 0.022738 0.404011 0.000000 0.000000 6.283186 
0.306113 -0.030067 -0.342401 0.061855 -0.494040 -6.262981 
-0.138274 0.355562 0.356943 0.019408 4.383716 4.501229 
0.217053 0.092295 0.329705 -0.024680 1.624669 6.069139 
0.181048 0.329808 -0.110682 -0.017014 5.978168 -1.931423 
0.210058 0.338596 -0.077807 -0.003652 6.147607 -1.295389 
-0.138239 0.032349 0.404011 0.000000 0.000000 6.283185 
-0.186331 -0.205559 0.349450 0.000013 -3.141613 5.441386 
0.402206 -0.023452 -0.080710 6.283185 -0.000032 -0.000214 
0.402182 -0.257960 0.192118 6.283185 -0.000545 0.000634 
0.254267 0.345614 0.013346 0.026260 6.276791 0.276139 
0.030365 -0.307503 -0.142342 -0.072988 -5.697484 -2.646938 
0.402203 0.122831 -0.048051 6.283185 0.000328 -0.000140 
0.150468 -0.285252 0.184946 -0.030394 -5.303433 3.368170 
0.069486 0.172400 -0.301434 -0.021978 3.050946 -5.492207 
-0.127840 0.338342 0.221073 0.000011 5.441288 3.141782 
-0.242456 0.389246 0.151839 -0.000002 -2.013582 5.951798 
-0.163595 -0.154899 -0.403537 0.000000 -5.952049 2.012842 
-0.274687 0.327471 0.384618 0.011099 4.358701 4.525455 
0.107015 -0.322780 0.104444 -0.038307 -5.992640 1.886430 
-0.400042 0.324324 -0.388385 -1.836343 3.137709 -3.151006 
-0.130754 -0.330641 0.381349 0.000002 -4.493680 4.391499 
0.206581 0.166332 0.301689 -0.062338 2.877722 5.584268 
-0.095176 0.347125 -0.281651 0.000007 4.148250 4.719156 
-0.382984 0.423765 -0.163934 0.000014 -2.013467 -5.951837 
0.135651 -0.331733 0.069619 -0.026326 -6.164871 1.209821 
-0.110189 0.152154 0.402396 -0.000008 5.952005 -2.012970 
-0.402227 -0.117953 -0.426830 -6.283185 0.000000 0.000000 
-0.042510 0.163372 -0.376745 0.000001 3.141671 -5.441353 
-0.402227 0.096029 -0.024495 -6.283185 0.000000 0.000000 
-0.402227 0.222366 0.275312 -6.283186 0.000000 0.000000 
-0.181609 -0.351946 0.204694 0.000004 -5.441196 3.141942 
-0.402227 0.245313 -0.125785 -6.283185 0.000000 0.000000 
0.361670 0.212781 0.272711 -0.016968 3.853682 4.962191 
-0.000451 -0.183846 -0.298400 6.283185 0.000000 0.000000 
0.071837 0.240947 -0.251330 -0.035496 4.337455 -4.544858 
0.395237 0.183213 -0.294757 0.103118 3.191109 -5.409793 
-0.032252 -0.411916 -0.068026 -0.000000 -2.653706 4.427101 
0.232469 -0.229689 -0.253995 -0.043846 -4.269966 -4.608311 
-0.156946 0.424143 0.163645 0.000017 -2.014068 5.951634 
-0.029441 -0.017365 0.404011 0.000000 0.000000 6.283185 
-0.000451 -0.372851 -0.124486 6.283185 0.000000 0.000000 
-0.373936 0.062277 0.426020 -0.000001 -6.161163 1.232267 
0.093716 0.204671 -0.281305 -0.025772 3.625558 -5.130283 
-0.150186 0.341403 0.277498 -0.000003 4.147732 -4.719612 
0.402206 0.055409 -0.075785 6.283185 0.000136 -0.000218 
0.402179 0.179922 0.294539 3.258747 1.558997 2.650394 
-0.135849 -0.307297 -0.381730 -0.000003 4.719262 -4.148130 
-0.402227 0.063512 0.395790 -6.283185 0.000000 0.000000 
-0.402227 -0.236828 -0.148931 -6.283185 0.000000 0.000000 
-0.364845 -0.448955 -0.075432 -0.000002 -1.232036 6.161210 
0.162977 -0.244452 -0.238629 -0.063967 -4.551290 -4.330737 
-0.000451 0.326583 -0.338096 6.283185 0.000000 0.000000 
0.402193 -0.152150 0.171994 6.283186 -0.000265 0.000727 
-0.103251 0.155500 -0.403074 -0.000003 5.951849 2.013433 
0.402196 0.017111 0.199475 6.283185 0.000022 0.000646 
-0.402227 -0.483554 0.073026 -3.522258 -0.541398 -2.707333 
-0.089920 -0.197823 0.353916 0.000002 -3.141588 5.441401 
-0.402227 0.212844 -0.142996 -6.283185 0.000000 0.000000 
0.361620 -0.068843 -0.336539 0.043199 -1.213336 -6.164364 
-0.185655 0.389785 0.322888 0.002384 4.491008 2.603918 
-0.103314 0.350483 0.285478 0.000012 4.147561 -4.719762 
-0.402227 0.097494 0.368721 -6.283186 0.000000 0.000000 
-0.240422 -0.077028 -0.484260 0.000003 6.161087 -1.232647 
-0.013185 -0.070993 -0.454098 0.000002 6.161082 -1.232669 
-0.402227 0.102462 0.210774 -6.283185 0.000000 0.000000 
-0.402227 -0.377960 0.159174 -3.225972 -2.647654 1.528791 
-0.000451 -0.101884 0.368977 6.283185 0.000000 0.000000 
-0.402227 0.364458 0.119538 -6.283185 0.000000 0.000000 
0.298507 0.345095 0.019339 0.034212 6.271356 0.379349 
-0.402227 -0.078877 0.135998 -6.283185 0.000000 0.000000 
0.402206 0.086148 -0.022035 6.283185 0.000246 -0.000079 
-0.283226 -0.065228 -0.425285 -0.000003 6.161079 -1.232687 
-0.175098 -0.425520 -0.168053 0.000002 2.013354 -5.951876 
-0.402227 -0.332482 -0.055754 -6.283186 0.000000 0.000000 
-0.363306 0.369756 -0.343146 0.000003 4.433536 -4.452209 
-0.000451 -0.366430 -0.053180 6.283185 0.000000 0.000000 
-0.402227 -0.010006 0.104955 -6.283185 0.000000 0.000000 
-0.102731 -0.343900 -0.367983 -0.000002 -4.423102 -4.462575 
-0.116052 0.322876 -0.260337 -0.000001 4.433545 2.985177 
0.392358 0.039528 -0.339887 0.121267 0.635384 -6.249325 
-0.289508 -0.163981 -0.378802 -0.000011 -3.142155 -5.441073 
-0.252191 -0.346366 -0.283542 0.000000 -4.147629 4.719703 
-0.338102 0.299082 -0.370032 -0.000003 -4.719381 -4.147995 
-0.145212 0.259365 0.326594 0.000003 -4.719362 4.148016 
0.402203 0.129429 0.025363 6.283185 0.000367 0.000065 
-0.148734 0.175983 -0.463622 0.000009 5.951857 2.013411 
-0.085015 0.013423 0.404011 0.000000 0.000000 6.283185 
-0.402227 0.078572 0.230133 -6.283185 0.000000 0.000000 
-0.000451 -0.160365 0.331212 6.283186 0.000000 0.000000 
0.398211 -0.079065 0.329060 1.280736 -1.084102 5.005788 
0.076688 0.161284 -0.307362 -0.021874 2.852501 -5.597551 
-0.338344 0.404591 -0.004616 0.000000 6.283185 0.000000 
0.090556 0.012163 -0.344675 0.011704 0.156129 -6.280705 
-0.402227 0.119540 0.050785 -6.283185 0.000000 0.000000 
-0.035332 0.314837 0.389707 0.000381 -3.376608 4.195869 
-0.341417 0.410114 -0.159316 -0.000001 -2.013291 -5.951897 
-0.262795 0.476610 -0.168479 -0.000004 6.067178 -1.633330 
-0.402227 0.227264 0.228244 -6.283185 0.000000 0.000000 
-0.210031 -0.059392 0.404011 0.000000 0.362061 5.986425 
-0.173184 -0.080678 0.473371 0.000000 6.160946 1.233352 
-0.402227 0.052126 0.132175 -6.283185 0.000000 0.000000 
0.402181 -0.121173 0.298444 6.283185 -0.000310 0.000696 
-0.045420 -0.348143 0.211280 -0.000003 -5.441204 3.141929 
-0.155322 0.121871 -0.489050 0.000003 1.617948 -6.071298 
-0.402227 -0.054294 0.069201 -6.283185 0.000000 0.000000 
-0.119712 0.173228 -0.455476 0.000023 5.951856 2.013413 
-0.402227 0.284174 -0.161046 -6.283186 0.000000 0.000000 
0.347021 -0.333021 -0.060105 0.048436 -6.204447 -0.988001 
-0.402227 0.463609 -0.126677 -6.283185 0.000000 0.000000 
-0.113236 -0.364530 0.287950 -0.000005 -4.147192 -4.720086 
0.402207 0.038244 0.026273 6.283185 0.000139 0.000120 
-0.228977 -0.158080 -0.412944 0.000002 -5.951995 2.013001 
-0.162142 0.468536 -0.075418 -0.000000 1.232273 6.161161 
0.402206 -0.085601 -0.010680 6.283185 -0.000262 -0.000080 
-0.000454 0.391523 0.042149 6.283185 -0.001336 -0.001358 
-0.000451 0.152001 0.445280 6.283185 0.000000 0.000000 
-0.000451 -0.272159 -0.240803 6.283185 0.000000 0.000000 
0.391583 0.223750 -0.266685 0.053360 3.955410 -4.879997 
-0.251412 -0.163509 -0.477755 -0.003180 -1.642179 -6.064787 
0.402194 0.020679 -0.224909 6.283185 0.000104 -0.000713 
0.402204 0.000971 0.102594 6.283185 0.000177 0.000431 
0.157572 -0.091540 0.328383 0.021923 -1.650700 6.062050 
-0.245260 0.404591 -0.045525 0.000000 6.283185 0.000000 
-0.153594 0.009879 0.404011 0.000000 0.000000 6.283185 
-0.251539 0.339863 -0.223781 -0.000001 5.441741 -3.141000 
-0.402227 -0.026240 -0.288244 -6.283185 0.000000 0.000000 
-0.283519 0.149572 -0.385549 -0.000009 4.730250 -1.226950 
0.254026 0.012976 0.340636 0.056233 0.052034 6.282313 
-0.402227 0.082855 -0.028809 -6.283185 0.000000 0.000000 
-0.000451 -0.087130 0.345294 6.283185 0.000000 0.000000 
0.030537 -0.041237 -0.341024 -0.059670 -0.959392 -6.208544 
-0.301447 0.499784 -0.082406 0.000005 3.910457 1.843314 
-0.126902 -0.421173 0.156301 -0.000022 2.013193 5.951930 
-0.118340 0.211485 -0.348968 -0.000000 3.141480 -5.441463 
-0.085328 0.486564 0.078443 0.000000 1.232197 -6.161177 
0.110114 0.109653 -0.328708 0.001928 1.877926 -5.995447 
-0.000451 -0.147680 -0.423726 6.283185 0.000000 0.000000 
-0.000451 -0.159422 -0.352879 6.283185 0.000000 0.000000 
-0.215533 -0.382159 0.328634 0.000010 -4.493553 4.391629 
-0.019163 0.453531 -0.072417 0.000001 1.232256 6.161165 
-0.000451 -0.178491 0.307521 6.283186 0.000000 0.000000 
-0.272960 0.482885 -0.145174 -0.000001 6.067077 -1.633705 
-0.263778 -0.155112 -0.404169 -0.000009 -5.952074 2.012769 
-0.065883 0.421850 0.162869 0.000008 -2.013963 5.951670 
0.402187 0.022966 -0.281033 6.283185 0.000116 -0.000765 
0.316445 0.207857 -0.279194 0.017509 3.661897 -5.105188 
-0.316093 -0.273722 0.331096 0.000004 4.719810 4.147507 
-0.092156 -0.477844 0.162389 -0.012867 -6.056103 1.673730 
-0.230816 -0.372391 0.338630 0.000006 -4.493526 4.391655 
0.218446 0.057001 0.337284 0.002871 0.978023 6.205857 
-0.246521 -0.408757 -0.045457 0.000000 -6.283185 0.000000 
-0.117735 -0.365845 -0.346232 -0.000002 -4.423091 -4.462586 
0.193654 0.045078 -0.341710 0.049841 0.720336 -6.241367 
-0.184642 -0.378792 0.158203 -0.000035 -5.441282 3.141793 
-0.168933 0.425212 -0.066753 -0.000002 1.232238 6.161169 
-0.013607 -0.311852 0.374487 0.000013 4.719858 4.147452 
-0.000451 -0.358937 0.188391 4.552797 -1.498502 0.865275 
-0.402227 0.346379 -0.104065 -6.283185 0.000000 0.000000 
0.188853 -0.174764 -0.295787 -0.076144 -3.277799 -5.358995 
-0.209314 -0.149982 -0.388999 0.000011 -5.095527 -0.259099 
0.402187 0.275774 0.065062 6.283185 0.000784 0.000233 
-0.351610 0.081739 -0.499744 -0.000001 -1.581645 -4.081161 
0.390109 0.266913 0.220487 0.000836 4.856581 3.984505 
-0.000451 -0.369361 0.106307 6.283185 0.000000 0.000000 
-0.097461 -0.479465 -0.081533 0.000001 -1.231953 6.161226 
-0.000451 0.117094 0.348008 6.283185 0.000000 0.000000 
-0.402227 0.216774 0.058791 -6.283185 0.000000 0.000000 
-0.000451 0.276749 0.285781 6.283185 0.000000 0.000000 
-0.198629 0.445678 0.070266 -0.000002 1.232207 -6.161176 
-0.391404 0.061672 0.422995 -0.000002 -6.161162 1.232273 
0.402190 0.000439 -0.260400 6.283185 -0.000029 -0.000751 
-0.231706 -0.383764 -0.154928 -0.000001 -2.406432 -4.285394 
-0.402227 -0.120738 -0.442989 -6.283185 0.000000 0.000000 
-0.054678 0.151393 0.400146 0.000008 5.952043 -2.012858 
-0.200202 -0.152489 -0.480824 -0.010957 -1.675195 -6.055734 
-0.354947 0.486190 0.078369 0.000004 1.232191 -6.161179 
-0.000451 0.340063 0.358547 6.283185 0.000000 0.000000 
-0.000451 -0.342393 0.131522 6.283185 0.000000 0.000000 
0.030564 0.036596 0.339384 -0.047117 0.718038 6.241218 
-0.120884 -0.462215 0.067974 0.000002 -1.232095 -6.161198 
-0.402227 -0.342895 -0.196313 -6.283185 0.000000 0.000000 
0.402181 -0.233754 -0.228530 6.283185 -0.000570 -0.000775 
-0.402227 -0.269838 0.258787 -6.283185 0.000000 0.000000 
-0.402227 0.102438 0.227799 -6.283185 0.000000 0.000000 
0.101522 0.345878 -0.014014 -0.016556 6.279658 -0.198537 
-0.000451 0.354327 0.070747 6.283185 0.000000 0.000000 
0.281377 -0.129076 -0.318803 -0.021344 -2.277203 -5.855568 
-0.000451 0.334679 0.339035 6.283185 0.000000 0.000000 
0.100026 -0.252697 -0.228538 -0.079579 -4.719584 -4.146373 
-0.245765 -0.163329 -0.428463 0.000007 -5.952048 2.012844 
-0.402227 0.134145 0.435309 -6.283185 0.000000 0.000000 
-0.207427 0.457019 0.072534 0.000003 1.232242 -6.161169 
-0.402227 -0.293899 0.280394 -6.283185 0.000000 0.000000 
0.402194 0.156648 0.168371 6.283185 0.000310 0.000669 
-0.367710 -0.331874 -0.270808 -0.000031 -4.147593 4.719735 
-0.201214 0.070761 0.468437 0.000001 -6.161164 1.232266 
-0.323391 -0.495703 0.092913 -0.016322 -6.087210 1.556805 
-0.183960 -0.154675 0.378827 -0.000004 -4.278153 2.426553 
0.217430 0.150492 0.309354 -0.044233 2.543726 5.744563 
-0.349564 0.318133 -0.391707 0.000004 -1.585331 -4.252024 
-0.093845 0.173605 0.365495 0.000007 3.142142 5.441081 
-0.296923 0.477385 -0.165601 0.000004 6.067169 -1.633361 
-0.402227 0.070625 0.146065 -6.283185 0.000000 0.000000 
-0.402227 0.058073 -0.392194 -6.283185 0.000000 0.000000 
-0.402227 0.002552 -0.374717 -6.283185 0.000000 0.000000 
0.025750 -0.060412 -0.337427 -0.069004 -1.315937 -6.142917 
-0.402227 0.138371 0.293407 -6.283185 0.000000 0.000000 
-0.271788 -0.273895 -0.343728 -0.000003 4.719265 -4.148127 
-0.176320 0.237362 -0.334029 -0.000000 3.141609 -5.441389 
-0.232800 -0.073663 0.438333 -0.000004 6.160933 1.233421 
-0.127059 -0.452974 -0.076236 0.000001 -1.232054 6.161206 
-0.258292 0.177198 0.363419 0.000001 3.142202 5.441046 
-0.071851 -0.331429 -0.270416 -0.000025 -4.147598 4.719730 
-0.132307 -0.157405 -0.410949 0.000017 -5.952014 2.012942 
-0.237788 0.057900 -0.409356 0.000000 -1.266461 -5.244919 
-0.000451 -0.239579 0.304504 6.283185 0.000000 0.000000 
0.087732 -0.041781 -0.341406 -0.037124 -0.930428 -6.213151 
0.196720 0.173253 -0.301214 -0.000621 3.044204 -5.495759 
-0.250263 -0.065780 -0.428040 0.000006 6.161078 -1.232694 
0.010909 0.344703 -0.028066 -0.051841 6.265368 -0.461205 
-0.243340 0.050114 0.404011 0.000000 -0.276992 6.056108 
-0.272643 -0.346786 0.364828 0.000010 -4.493644 4.391535 
-0.402227 -0.001561 -0.329148 -6.283186 0.000000 0.000000 
-0.026404 -0.477415 0.164700 -0.032173 -6.022687 1.789842 
-0.319546 0.408050 -0.158618 -0.000026 -2.013248 -5.951912 
0.402184 -0.290205 -0.083348 6.283185 -0.000861 -0.000066 
-0.051324 0.000362 -0.409356 0.000000 0.000000 -6.283185 
0.402186 0.249416 0.144073 6.283185 0.000570 0.000511 
-0.062753 -0.304194 0.365772 -0.000010 4.719775 4.147547 
0.402193 -0.230271 -0.029699 6.283185 -0.000726 0.000035 
-0.013470 0.404591 0.059236 -0.000005 4.592103 -2.062818 
-0.402227 0.226542 -0.052966 -6.283185 0.000000 0.000000 
-0.153277 0.377857 0.335164 0.018121 4.452924 4.432675 
-0.255563 0.265586 -0.331921 -0.000006 -4.719348 -4.148032 
-0.230020 0.074091 0.485090 0.000002 -6.161163 1.232271 
-0.352049 -0.078930 0.464642 -0.000001 6.160926 1.233450 
-0.133691 -0.397475 0.148286 0.000049 2.013306 5.951892 
-0.098286 -0.417030 0.058938 0.000005 -1.232086 -6.161200 
-0.402227 -0.365298 -0.019272 -6.283185 0.000000 0.000000 
-0.402227 -0.164664 -0.206341 -6.283185 0.000000 0.000000 
-0.109138 0.067497 -0.433592 0.000000 -6.161195 -1.232110 
-0.000451 -0.285864 -0.224506 6.283185 0.000000 0.000000 
-0.402227 0.241509 0.224326 -6.283186 0.000000 0.000000 
-0.370638 0.085575 -0.498722 0.000001 -0.283849 -4.888384 
-0.402227 -0.151152 0.115610 -6.283185 0.000000 0.000000 
-0.165203 0.067211 -0.432162 -0.000001 -6.161199 -1.232088 
-0.074304 0.372137 0.340460 0.019011 4.402740 4.482625 
-0.286620 -0.436337 -0.171712 0.000006 2.013460 -5.951839 
-0.182897 -0.458163 -0.179096 0.000012 2.013378 -5.951868 
-0.043288 -0.313888 0.376804 0.000004 4.719834 4.147479 
-0.232148 -0.420798 0.059691 -0.000012 -1.232083 -6.161201 
-0.092647 -0.465701 -0.078781 0.000001 -1.232031 6.161211 
-0.306655 0.494542 -0.101879 -0.000001 6.067156 -1.633413 
0.402182 0.132025 0.298192 6.283185 0.000238 0.000839 
-0.402227 0.100443 -0.125466 -6.283185 0.000000 0.000000 
0.271667 -0.165757 0.297674 0.023274 -3.037947 5.498927 
-0.402227 -0.338141 -0.313191 -6.283185 0.000000 0.000000 
-0.359640 -0.068859 -0.443432 -0.000000 6.161085 -1.232659 
-0.276133 -0.408757 -0.019923 0.000000 -6.283186 0.000000 
-0.000451 -0.361515 -0.341196 6.283185 0.000000 0.000000 
0.402190 -0.048070 -0.261225 6.283185 -0.000285 -0.000711 
-0.402227 0.092922 -0.067091 -6.283185 0.000000 0.000000 
-0.368856 0.009687 -0.409356 0.000000 0.000000 -6.283185 
0.402181 -0.240339 0.217916 6.283185 -0.000689 0.000439 
-0.257251 -0.082566 0.482801 -0.000002 6.160930 1.233435 
-0.402227 0.169181 -0.134944 -6.283185 0.000000 0.000000 
0.304473 0.341200 0.055477 0.040888 6.208324 0.963850 
-0.252723 0.149474 -0.385259 -0.000007 4.654543 -1.427792 
-0.402227 -0.100208 0.187243 -6.283186 0.000000 0.000000 
-0.009854 0.125115 0.487557 0.005318 1.574565 6.082690 
-0.359385 0.068175 0.455506 0.000001 -6.161159 1.232288 
-0.312316 -0.446755 -0.175236 -0.000002 2.013459 -5.951840 
-0.221052 0.292488 0.364278 -0.000132 -4.719105 4.148309 
0.402181 -0.137468 -0.296285 6.283185 -0.000429 -0.000741 
0.402181 -0.270897 0.187199 6.283185 -0.000739 0.000383 
-0.402227 -0.131088 0.072257 -6.283185 0.000000 0.000000 
0.402186 -0.020049 0.285958 6.283185 -0.000068 0.000830 
-0.004008 0.375731 -0.161638 1.241774 4.351527 -2.511276 
-0.021315 -0.318246 -0.393409 -0.000001 -0.336558 -4.322030 
-0.402227 0.124581 -0.076596 -6.283185 0.000000 0.000000 
-0.357551 0.325276 -0.262446 -0.000002 4.333183 3.595015 
0.078868 -0.284104 0.186003 -0.040474 -5.289179 3.390179 
0.339530 -0.150750 0.305189 0.041760 -2.753301 5.647098 
0.402194 -0.049070 -0.222768 6.283185 -0.000132 -0.000704 
-0.000451 -0.338181 -0.191788 6.283185 0.000000 0.000000 
0.402183 0.223964 -0.228920 6.283185 0.000672 -0.000594 
-0.140081 -0.065122 0.404011 0.000001 2.260306 4.430536 
0.319502 -0.111659 -0.325161 -0.008681 -1.990374 -5.958818 
-0.402227 0.362851 -0.180180 -3.771832 2.175005 -1.255484 
-0.264106 0.282324 0.352714 -0.000037 -4.719191 4.148211 
-0.317941 -0.070682 -0.452541 0.000004 6.161084 -1.232665 
-0.402227 -0.231511 0.137991 -6.283185 0.000000 0.000000 
-0.033911 -0.362048 0.285769 0.000010 -4.147319 -4.719975 
-0.402227 -0.351610 0.058549 -6.283185 0.000000 0.000000 
-0.268288 0.491205 0.113681 0.000004 6.066968 1.634111 
-0.342224 -0.166263 0.475933 0.000003 -1.690861 6.051397 
-0.000451 -0.337961 0.311265 6.283186 0.000000 0.000000 
-0.140948 -0.456382 -0.076917 -0.000002 -1.232067 6.161203 
0.101782 0.071327 -0.338287 0.019531 1.168743 -6.173153 
-0.402227 -0.085377 0.456636 -6.283185 0.000000 0.000000 
0.218812 0.332915 0.094893 0.002377 6.036300 1.741534 
0.402203 0.118785 -0.066821 6.283185 0.000445 -0.000167 
0.031344 -0.290201 0.175508 -0.044026 -5.396762 3.215886 
-0.238526 -0.480481 -0.150435 -0.000003 -6.055739 -1.675245 
-0.039086 0.357026 -0.194044 0.000000 5.441833 -3.140839 
-0.402227 -0.075343 0.214486 -6.283185 0.000000 0.000000 
-0.137384 0.357477 -0.355372 0.000003 4.432994 -4.452750 
-0.315377 0.151204 -0.481235 0.000002 1.617563 -6.071401 
-0.314894 0.353605 -0.359227 0.000003 4.433311 -4.452435 
-0.355216 -0.492984 -0.105233 -0.000009 -6.055822 -1.674943 
-0.402227 -0.162290 0.043203 -6.283185 0.000000 0.000000 
-0.145814 -0.490718 -0.113423 -0.000002 -6.055766 -1.675148 
-0.402227 0.105907 -0.266500 -6.283185 0.000000 0.000000 
0.031659 0.260942 -0.229949 -0.050889 4.741385 -4.120442 
-0.402227 0.359294 0.081740 -6.283185 0.000000 0.000000 
-0.233834 -0.006025 0.404011 0.000000 0.000000 6.283186 
0.339728 -0.041440 0.336301 0.089236 -0.771838 6.234628 
-0.402227 -0.155101 0.013196 -6.283185 0.000000 0.000000 
0.185166 0.344665 -0.036696 -0.006450 6.258299 -0.555237 
-0.349345 -0.372228 0.294714 -0.000008 -4.147202 -4.720077 
0.035658 0.111390 -0.328014 -0.015596 1.953460 -5.970800 
-0.402227 -0.362376 -0.034740 -6.283185 0.000000 0.000000 
-0.000451 -0.154950 0.457667 6.283185 0.000000 0.000000 
-0.402227 0.331841 -0.293382 -6.283185 0.000000 0.000000 
0.402206 -0.056299 0.060572 6.283186 -0.000091 0.000256 
-0.402227 0.040834 0.219091 -6.283186 0.000000 0.000000 
-0.402227 0.106465 -0.138897 -6.283185 0.000000 0.000000 
-0.104155 -0.362157 -0.192364 -0.000001 -5.441831 -3.140843 
0.029793 -0.330951 0.070314 -0.050792 -6.158790 1.240326 
-0.255390 -0.459658 -0.077572 -0.000002 -1.232058 6.161205 
-0.218953 -0.212964 -0.350516 -0.000000 -3.142128 -5.441089 
0.296115 -0.194056 0.280232 0.016596 -3.541045 5.189513 
0.003394 -0.109149 -0.323126 1.092236 -1.707213 -4.758017 
-0.356611 0.109417 0.492674 0.051648 1.391942 6.126805 
-0.388922 -0.371078 -0.341046 0.000005 -4.423068 -4.462610 
-0.372277 -0.413949 0.153858 0.000002 2.013191 5.951931 
-0.015790 0.421971 -0.066105 -0.000010 1.232270 6.161163 
-0.228150 0.266154 0.334319 -0.000067 -4.719282 4.148108 
-0.014918 0.439983 0.069127 -0.000001 1.232230 -6.161171 
-0.218324 0.095952 0.495232 0.008658 1.524156 6.095507 
0.014962 0.254049 0.230287 -0.115863 4.626531 4.249022 
-0.123506 -0.327281 0.255221 0.000006 -4.385054 -3.274567 
0.158666 -0.228888 0.252658 -0.012250 -4.232333 4.643196 
-0.049010 0.482481 -0.146672 -0.000002 6.067075 -1.633711 
-0.136746 0.097958 0.494645 0.004748 1.553821 6.088022 
0.402207 -0.046105 -0.037981 6.283186 -0.000178 -0.000106 
-0.402227 -0.259278 0.133271 -6.283185 0.000000 0.000000 
-0.221648 -0.079908 0.469526 0.000002 6.160944 1.233360 
-0.347794 0.404591 -0.014694 0.000000 6.283185 0.000000 
0.289592 -0.158487 -0.305769 -0.026144 -2.852567 -5.597542 
-0.209526 -0.469089 0.172510 -0.000064 1.701417 5.783636 
0.289927 -0.314480 0.129360 -0.001444 -5.839672 2.317026 
0.187034 0.337315 0.077940 0.003542 6.123148 1.406176 
0.199094 0.103663 -0.330284 0.030077 1.714781 -6.044077 
-0.402227 -0.069137 0.175538 -6.283185 0.000000 0.000000 
