41.416657496222 -22.687974945005 1.745479992031 0.899717415134 -0.436472877627 0.000000000000
41.416657496222 -22.687974945005 2.181849990038 0.899717415134 -0.436472877627 0.000000000000
41.416657496222 -22.687974945005 2.618219988046 0.899717415134 -0.436472877627 0.000000000000
41.416657496222 -22.687974945005 3.054589986054 0.899717415134 -0.436472877627 0.000000000000
41.416657496222 -22.687974945005 3.490959984061 0.899717415134 -0.436472877627 0.000000000000
41.416657496222 -22.687974945005 3.927329982069 0.899717415134 -0.436472877627 0.000000000000
41.416657496222 -22.687974945005 4.363699980077 0.899717415134 -0.436472877627 0.000000000000
41.416657496222 -22.687974945005 4.800069978085 0.899717415134 -0.436472877627 0.000000000000
41.416657496222 -22.687974945005 5.236439976092 0.899717415134 -0.436472877627 0.000000000000
41.416657496222 -22.687974945005 5.672809974100 0.899717415134 -0.436472877627 0.000000000000
41.416657496222 -22.687974945005 6.109179972108 0.899717415134 -0.436472877627 0.000000000000
41.416657496222 -22.687974945005 6.545549970115 0.899717415134 -0.436472877627 0.000000000000
41.416657496222 -22.687974945005 6.981919968123 0.899717415134 -0.436472877627 0.000000000000
41.604921363627 -22.284504274957 0.436369998008 0.912481067162 -0.409118933895 0.000000000000
41.604921363627 -22.284504274957 0.872739996015 0.912481067162 -0.409118933895 0.000000000000
41.604921363627 -22.284504274957 1.309109994023 0.912481067162 -0.409118933895 0.000000000000
41.604921363627 -22.284504274957 1.745479992031 0.912481067162 -0.409118933895 0.000000000000
41.604921363627 -22.284504274957 2.181849990038 0.912481067162 -0.409118933895 0.000000000000
41.604921363627 -22.284504274957 2.618219988046 0.912481067162 -0.409118933895 0.000000000000
41.604921363627 -22.284504274957 3.054589986054 0.912481067162 -0.409118933895 0.000000000000
41.604921363627 -22.284504274957 3.490959984061 0.912481067162 -0.409118933895 0.000000000000
41.604921363627 -22.284504274957 3.927329982069 0.912481067162 -0.409118933895 0.000000000000
41.604921363627 -22.284504274957 4.363699980077 0.912481067162 -0.409118933895 0.000000000000
41.604921363627 -22.284504274957 4.800069978085 0.912481067162 -0.409118933895 0.000000000000
41.604921363627 -22.284504274957 5.236439976092 0.912481067162 -0.409118933895 0.000000000000
41.604921363627 -22.284504274957 5.672809974100 0.912481067162 -0.409118933895 0.000000000000
41.604921363627 -22.284504274957 6.109179972108 0.912481067162 -0.409118933895 0.000000000000
41.604921363627 -22.284504274957 6.545549970115 0.912481067162 -0.409118933895 0.000000000000
41.604921363627 -22.284504274957 6.981919968123 0.912481067162 -0.409118933895 0.000000000000
41.779983930001 -21.877808388661 0.436369998008 0.924349715729 -0.381546331435 0.000000000000
41.779983930001 -21.877808388661 0.872739996015 0.924349715729 -0.381546331435 0.000000000000
41.779983930001 -21.877808388661 1.309109994023 0.924349715729 -0.381546331435 0.000000000000
41.779983930001 -21.877808388661 1.745479992031 0.924349715729 -0.381546331435 0.000000000000
41.779983930001 -21.877808388661 2.181849990038 0.924349715729 -0.381546331435 0.000000000000
41.779983930001 -21.877808388661 2.618219988046 0.924349715729 -0.381546331435 0.000000000000
41.779983930001 -21.877808388661 3.054589986054 0.924349715729 -0.381546331435 0.000000000000
41.779983930001 -21.877808388661 3.490959984061 0.924349715729 -0.381546331435 0.000000000000
41.779983930001 -21.877808388661 3.927329982069 0.924349715729 -0.381546331435 0.000000000000
41.779983930001 -21.877808388661 4.363699980077 0.924349715729 -0.381546331435 0.000000000000
41.779983930001 -21.877808388661 4.800069978085 0.924349715729 -0.381546331435 0.000000000000
41.779983930001 -21.877808388661 5.236439976092 0.924349715729 -0.381546331435 0.000000000000
41.779983930001 -21.877808388661 5.672809974100 0.924349715729 -0.381546331435 0.000000000000
41.779983930001 -21.877808388661 6.109179972108 0.924349715729 -0.381546331435 0.000000000000
41.779983930001 -21.877808388661 6.545549970115 0.924349715729 -0.381546331435 0.000000000000
41.779983930001 -21.877808388661 6.981919968123 0.924349715729 -0.381546331435 0.000000000000
41.941827996889 -21.468507305685 0.436369998008 0.935322194840 -0.353797105470 0.000000000000
41.941827996889 -21.468507305685 0.872739996015 0.935322194840 -0.353797105470 0.000000000000
41.941827996889 -21.468507305685 1.309109994023 0.935322194840 -0.353797105470 0.000000000000
41.941827996889 -21.468507305685 1.745479992031 0.935322194840 -0.353797105470 0.000000000000
41.941827996889 -21.468507305685 2.181849990038 0.935322194840 -0.353797105470 0.000000000000
41.941827996889 -21.468507305685 2.618219988046 0.935322194840 -0.353797105470 0.000000000000
41.941827996889 -21.468507305685 3.054589986054 0.935322194840 -0.353797105470 0.000000000000
41.941827996889 -21.468507305685 3.490959984061 0.935322194840 -0.353797105470 0.000000000000
41.941827996889 -21.468507305685 3.927329982069 0.935322194840 -0.353797105470 0.000000000000
41.941827996889 -21.468507305685 4.363699980077 0.935322194840 -0.353797105470 0.000000000000
41.941827996889 -21.468507305685 4.800069978085 0.935322194840 -0.353797105470 0.000000000000
41.941827996889 -21.468507305685 5.236439976092 0.935322194840 -0.353797105470 0.000000000000
41.941827996889 -21.468507305685 5.672809974100 0.935322194840 -0.353797105470 0.000000000000
41.941827996889 -21.468507305685 6.109179972108 0.935322194840 -0.353797105470 0.000000000000
41.941827996889 -21.468507305685 6.545549970115 0.935322194840 -0.353797105470 0.000000000000
41.941827996889 -21.468507305685 6.981919968123 0.935322194840 -0.353797105470 0.000000000000
42.090473245595 -21.057213608890 0.436369998008 0.945399838820 -0.325912787043 0.000000000000
42.090473245595 -21.057213608890 0.872739996015 0.945399838820 -0.325912787043 0.000000000000
42.090473245595 -21.057213608890 1.309109994023 0.945399838820 -0.325912787043 0.000000000000
42.090473245595 -21.057213608890 1.745479992031 0.945399838820 -0.325912787043 0.000000000000
42.090473245595 -21.057213608890 2.181849990038 0.945399838820 -0.325912787043 0.000000000000
42.090473245595 -21.057213608890 2.618219988046 0.945399838820 -0.325912787043 0.000000000000
42.090473245595 -21.057213608890 3.054589986054 0.945399838820 -0.325912787043 0.000000000000
42.090473245595 -21.057213608890 3.490959984061 0.945399838820 -0.325912787043 0.000000000000
42.090473245595 -21.057213608890 3.927329982069 0.945399838820 -0.325912787043 0.000000000000
42.090473245595 -21.057213608890 4.363699980077 0.945399838820 -0.325912787043 0.000000000000
42.090473245595 -21.057213608890 4.800069978085 0.945399838820 -0.325912787043 0.000000000000
42.090473245595 -21.057213608890 5.236439976092 0.945399838820 -0.325912787043 0.000000000000
42.090473245595 -21.057213608890 5.672809974100 0.945399838820 -0.325912787043 0.000000000000
42.090473245595 -21.057213608890 6.109179972108 0.945399838820 -0.325912787043 0.000000000000
42.090473245595 -21.057213608890 6.545549970115 0.945399838820 -0.325912787043 0.000000000000
42.090473245595 -21.057213608890 6.981919968123 0.945399838820 -0.325912787043 0.000000000000
42.225975025385 -20.644529873189 0.436369998008 0.954586400162 -0.297934228691 0.000000000000
42.225975025385 -20.644529873189 0.872739996015 0.954586400162 -0.297934228691 0.000000000000
42.225975025385 -20.644529873189 1.309109994023 0.954586400162 -0.297934228691 0.000000000000
42.225975025385 -20.644529873189 1.745479992031 0.954586400162 -0.297934228691 0.000000000000
42.225975025385 -20.644529873189 2.181849990038 0.954586400162 -0.297934228691 0.000000000000
42.225975025385 -20.644529873189 2.618219988046 0.954586400162 -0.297934228691 0.000000000000
42.225975025385 -20.644529873189 3.054589986054 0.954586400162 -0.297934228691 0.000000000000
42.225975025385 -20.644529873189 3.490959984061 0.954586400162 -0.297934228691 0.000000000000
42.225975025385 -20.644529873189 3.927329982069 0.954586400162 -0.297934228691 0.000000000000
42.225975025385 -20.644529873189 4.363699980077 0.954586400162 -0.297934228691 0.000000000000
42.225975025385 -20.644529873189 4.800069978085 0.954586400162 -0.297934228691 0.000000000000
42.225975025385 -20.644529873189 5.236439976092 0.954586400162 -0.297934228691 0.000000000000
42.225975025385 -20.644529873189 5.672809974100 0.954586400162 -0.297934228691 0.000000000000
42.225975025385 -20.644529873189 6.109179972108 0.954586400162 -0.297934228691 0.000000000000
42.225975025385 -20.644529873189 6.545549970115 0.954586400162 -0.297934228691 0.000000000000
42.225975025385 -20.644529873189 6.981919968123 0.954586400162 -0.297934228691 0.000000000000
42.348422944738 -20.231046259013 0.436369998008 0.962887954017 -0.269901441289 0.000000000000
42.348422944738 -20.231046259013 0.872739996015 0.962887954017 -0.269901441289 0.000000000000
42.348422944738 -20.231046259013 1.309109994023 0.962887954017 -0.269901441289 0.000000000000
42.348422944738 -20.231046259013 1.745479992031 0.962887954017 -0.269901441289 0.000000000000
42.348422944738 -20.231046259013 2.181849990038 0.962887954017 -0.269901441289 0.000000000000
42.348422944738 -20.231046259013 2.618219988046 0.962887954017 -0.269901441289 0.000000000000
42.348422944738 -20.231046259013 3.054589986054 0.962887954017 -0.269901441289 0.000000000000
42.348422944738 -20.231046259013 3.490959984061 0.962887954017 -0.269901441289 0.000000000000
42.348422944738 -20.231046259013 3.927329982069 0.962887954017 -0.269901441289 0.000000000000
42.348422944738 -20.231046259013 4.363699980077 0.962887954017 -0.269901441289 0.000000000000
42.348422944738 -20.231046259013 4.800069978085 0.962887954017 -0.269901441289 0.000000000000
42.348422944738 -20.231046259013 5.236439976092 0.962887954017 -0.269901441289 0.000000000000
42.348422944738 -20.231046259013 5.672809974100 0.962887954017 -0.269901441289 0.000000000000
42.348422944738 -20.231046259013 6.109179972108 0.962887954017 -0.269901441289 0.000000000000
42.348422944738 -20.231046259013 6.545549970115 0.962887954017 -0.269901441289 0.000000000000
42.348422944738 -20.231046259013 6.981919968123 0.962887954017 -0.269901441289 0.000000000000
42.457939287812 -19.817338285799 0.436369998008 0.970312790835 -0.241853443105 0.000000000000
42.457939287812 -19.817338285799 0.872739996015 0.970312790835 -0.241853443105 0.000000000000
42.457939287812 -19.817338285799 1.309109994023 0.970312790835 -0.241853443105 0.000000000000
42.457939287812 -19.817338285799 1.745479992031 0.970312790835 -0.241853443105 0.000000000000
42.457939287812 -19.817338285799 2.181849990038 0.970312790835 -0.241853443105 0.000000000000
42.457939287812 -19.817338285799 2.618219988046 0.970312790835 -0.241853443105 0.000000000000
42.457939287812 -19.817338285799 3.054589986054 0.970312790835 -0.241853443105 0.000000000000
42.457939287812 -19.817338285799 3.490959984061 0.970312790835 -0.241853443105 0.000000000000
42.457939287812 -19.817338285799 3.927329982069 0.970312790835 -0.241853443105 0.000000000000
42.457939287812 -19.817338285799 4.363699980077 0.970312790835 -0.241853443105 0.000000000000
42.457939287812 -19.817338285799 4.800069978085 0.970312790835 -0.241853443105 0.000000000000
42.457939287812 -19.817338285799 5.236439976092 0.970312790835 -0.241853443105 0.000000000000
42.457939287812 -19.817338285799 5.672809974100 0.970312790835 -0.241853443105 0.000000000000
42.457939287812 -19.817338285799 6.109179972108 0.970312790835 -0.241853443105 0.000000000000
42.457939287812 -19.817338285799 6.545549970115 0.970312790835 -0.241853443105 0.000000000000
42.457939287812 -19.817338285799 6.981919968123 0.970312790835 -0.241853443105 0.000000000000
42.554677279342 -19.403964797737 0.436369998008 0.976871298735 -0.213828121880 0.000000000000
42.554677279342 -19.403964797737 0.872739996015 0.976871298735 -0.213828121880 0.000000000000
42.554677279342 -19.403964797737 1.309109994023 0.976871298735 -0.213828121880 0.000000000000
42.554677279342 -19.403964797737 1.745479992031 0.976871298735 -0.213828121880 0.000000000000
42.554677279342 -19.403964797737 2.181849990038 0.976871298735 -0.213828121880 0.000000000000
42.554677279342 -19.403964797737 2.618219988046 0.976871298735 -0.213828121880 0.000000000000
42.554677279342 -19.403964797737 3.054589986054 0.976871298735 -0.213828121880 0.000000000000
42.554677279342 -19.403964797737 3.490959984061 0.976871298735 -0.213828121880 0.000000000000
42.554677279342 -19.403964797737 3.927329982069 0.976871298735 -0.213828121880 0.000000000000
42.554677279342 -19.403964797737 4.363699980077 0.976871298735 -0.213828121880 0.000000000000
42.554677279342 -19.403964797737 4.800069978085 0.976871298735 -0.213828121880 0.000000000000
42.554677279342 -19.403964797737 5.236439976092 0.976871298735 -0.213828121880 0.000000000000
42.554677279342 -19.403964797737 5.672809974100 0.976871298735 -0.213828121880 0.000000000000
42.554677279342 -19.403964797737 6.109179972108 0.976871298735 -0.213828121880 0.000000000000
42.554677279342 -19.403964797737 6.545549970115 0.976871298735 -0.213828121880 0.000000000000
42.554677279342 -19.403964797737 6.981919968123 0.976871298735 -0.213828121880 0.000000000000
42.638819221726 -18.991466130943 0.436369998008 0.982575837202 -0.185862110572 0.000000000000
42.638819221726 -18.991466130943 0.872739996015 0.982575837202 -0.185862110572 0.000000000000
42.638819221726 -18.991466130943 1.309109994023 0.982575837202 -0.185862110572 0.000000000000
42.638819221726 -18.991466130943 1.745479992031 0.982575837202 -0.185862110572 0.000000000000
42.638819221726 -18.991466130943 2.181849990038 0.982575837202 -0.185862110572 0.000000000000
42.638819221726 -18.991466130943 2.618219988046 0.982575837202 -0.185862110572 0.000000000000
42.638819221726 -18.991466130943 3.054589986054 0.982575837202 -0.185862110572 0.000000000000
42.638819221726 -18.991466130943 3.490959984061 0.982575837202 -0.185862110572 0.000000000000
42.638819221726 -18.991466130943 3.927329982069 0.982575837202 -0.185862110572 0.000000000000
42.638819221726 -18.991466130943 4.363699980077 0.982575837202 -0.185862110572 0.000000000000
42.638819221726 -18.991466130943 4.800069978085 0.982575837202 -0.185862110572 0.000000000000
42.638819221726 -18.991466130943 5.236439976092 0.982575837202 -0.185862110572 0.000000000000
42.638819221726 -18.991466130943 5.672809974100 0.982575837202 -0.185862110572 0.000000000000
42.638819221726 -18.991466130943 6.109179972108 0.982575837202 -0.185862110572 0.000000000000
42.638819221726 -18.991466130943 6.545549970115 0.982575837202 -0.185862110572 0.000000000000
42.638819221726 -18.991466130943 6.981919968123 0.982575837202 -0.185862110572 0.000000000000
42.710574528257 -18.580362488251 0.436369998008 0.987440603747 -0.157990677170 0.000000000000
42.710574528257 -18.580362488251 0.872739996015 0.987440603747 -0.157990677170 0.000000000000
42.710574528257 -18.580362488251 1.309109994023 0.987440603747 -0.157990677170 0.000000000000
42.710574528257 -18.580362488251 1.745479992031 0.987440603747 -0.157990677170 0.000000000000
42.710574528257 -18.580362488251 2.181849990038 0.987440603747 -0.157990677170 0.000000000000
42.710574528257 -18.580362488251 2.618219988046 0.987440603747 -0.157990677170 0.000000000000
42.710574528257 -18.580362488251 3.054589986054 0.987440603747 -0.157990677170 0.000000000000
42.710574528257 -18.580362488251 3.490959984061 0.987440603747 -0.157990677170 0.000000000000
42.710574528257 -18.580362488251 3.927329982069 0.987440603747 -0.157990677170 0.000000000000
42.710574528257 -18.580362488251 4.363699980077 0.987440603747 -0.157990677170 0.000000000000
42.710574528257 -18.580362488251 4.800069978085 0.987440603747 -0.157990677170 0.000000000000
42.710574528257 -18.580362488251 5.236439976092 0.987440603747 -0.157990677170 0.000000000000
42.710574528257 -18.580362488251 5.672809974100 0.987440603747 -0.157990677170 0.000000000000
42.710574528257 -18.580362488251 6.109179972108 0.987440603747 -0.157990677170 0.000000000000
42.710574528257 -18.580362488251 6.545549970115 0.987440603747 -0.157990677170 0.000000000000
42.710574528257 -18.580362488251 6.981919968123 0.987440603747 -0.157990677170 0.000000000000
42.770177676206 -18.171152524847 0.436369998008 0.991481495133 -0.130247628803 0.000000000000
42.770177676206 -18.171152524847 0.872739996015 0.991481495133 -0.130247628803 0.000000000000
42.770177676206 -18.171152524847 1.309109994023 0.991481495133 -0.130247628803 0.000000000000
42.770177676206 -18.171152524847 1.745479992031 0.991481495133 -0.130247628803 0.000000000000
42.770177676206 -18.171152524847 2.181849990038 0.991481495133 -0.130247628803 0.000000000000
42.770177676206 -18.171152524847 2.618219988046 0.991481495133 -0.130247628803 0.000000000000
42.770177676206 -18.171152524847 3.054589986054 0.991481495133 -0.130247628803 0.000000000000
42.770177676206 -18.171152524847 3.490959984061 0.991481495133 -0.130247628803 0.000000000000
42.770177676206 -18.171152524847 3.927329982069 0.991481495133 -0.130247628803 0.000000000000
42.770177676206 -18.171152524847 4.363699980077 0.991481495133 -0.130247628803 0.000000000000
42.770177676206 -18.171152524847 4.800069978085 0.991481495133 -0.130247628803 0.000000000000
42.770177676206 -18.171152524847 5.236439976092 0.991481495133 -0.130247628803 0.000000000000
42.770177676206 -18.171152524847 5.672809974100 0.991481495133 -0.130247628803 0.000000000000
42.770177676206 -18.171152524847 6.109179972108 0.991481495133 -0.130247628803 0.000000000000
42.770177676206 -18.171152524847 6.545549970115 0.991481495133 -0.130247628803 0.000000000000
42.770177676206 -18.171152524847 6.981919968123 0.991481495133 -0.130247628803 0.000000000000
42.817886102922 -17.764312145283 0.436369998008 0.994715964741 -0.102665230189 0.000000000000
42.817886102922 -17.764312145283 0.872739996015 0.994715964741 -0.102665230189 0.000000000000
42.817886102922 -17.764312145283 1.309109994023 0.994715964741 -0.102665230189 0.000000000000
42.817886102922 -17.764312145283 1.745479992031 0.994715964741 -0.102665230189 0.000000000000
42.817886102922 -17.764312145283 2.181849990038 0.994715964741 -0.102665230189 0.000000000000
42.817886102922 -17.764312145283 2.618219988046 0.994715964741 -0.102665230189 0.000000000000
42.817886102922 -17.764312145283 3.054589986054 0.994715964741 -0.102665230189 0.000000000000
42.817886102922 -17.764312145283 3.490959984061 0.994715964741 -0.102665230189 0.000000000000
42.817886102922 -17.764312145283 3.927329982069 0.994715964741 -0.102665230189 0.000000000000
42.817886102922 -17.764312145283 4.363699980077 0.994715964741 -0.102665230189 0.000000000000
42.817886102922 -17.764312145283 4.800069978085 0.994715964741 -0.102665230189 0.000000000000
42.817886102922 -17.764312145283 5.236439976092 0.994715964741 -0.102665230189 0.000000000000
42.817886102922 -17.764312145283 5.672809974100 0.994715964741 -0.102665230189 0.000000000000
42.817886102922 -17.764312145283 6.109179972108 0.994715964741 -0.102665230189 0.000000000000
42.817886102922 -17.764312145283 6.545549970115 0.994715964741 -0.102665230189 0.000000000000
42.817886102922 -17.764312145283 6.981919968123 0.994715964741 -0.102665230189 0.000000000000
42.853978067203 -17.360293509802 0.436369998008 0.997162877573 -0.075274136258 0.000000000000
42.853978067203 -17.360293509802 0.872739996015 0.997162877573 -0.075274136258 0.000000000000
42.853978067203 -17.360293509802 1.309109994023 0.997162877573 -0.075274136258 0.000000000000
42.853978067203 -17.360293509802 1.745479992031 0.997162877573 -0.075274136258 0.000000000000
42.853978067203 -17.360293509802 2.181849990038 0.997162877573 -0.075274136258 0.000000000000
42.853978067203 -17.360293509802 2.618219988046 0.997162877573 -0.075274136258 0.000000000000
42.853978067203 -17.360293509802 3.054589986054 0.997162877573 -0.075274136258 0.000000000000
42.853978067203 -17.360293509802 3.490959984061 0.997162877573 -0.075274136258 0.000000000000
42.853978067203 -17.360293509802 3.927329982069 0.997162877573 -0.075274136258 0.000000000000
42.853978067203 -17.360293509802 4.363699980077 0.997162877573 -0.075274136258 0.000000000000
42.853978067203 -17.360293509802 4.800069978085 0.997162877573 -0.075274136258 0.000000000000
42.853978067203 -17.360293509802 5.236439976092 0.997162877573 -0.075274136258 0.000000000000
42.853978067203 -17.360293509802 5.672809974100 0.997162877573 -0.075274136258 0.000000000000
42.853978067203 -17.360293509802 6.109179972108 0.997162877573 -0.075274136258 0.000000000000
42.853978067203 -17.360293509802 6.545549970115 0.997162877573 -0.075274136258 0.000000000000
42.853978067203 -17.360293509802 6.981919968123 0.997162877573 -0.075274136258 0.000000000000
42.878750497060 -16.959524245618 0.436369998008 0.998842364343 -0.048103338686 0.000000000000
42.878750497060 -16.959524245618 0.872739996015 0.998842364343 -0.048103338686 0.000000000000
42.878750497060 -16.959524245618 1.309109994023 0.998842364343 -0.048103338686 0.000000000000
42.878750497060 -16.959524245618 1.745479992031 0.998842364343 -0.048103338686 0.000000000000
42.878750497060 -16.959524245618 2.181849990038 0.998842364343 -0.048103338686 0.000000000000
42.878750497060 -16.959524245618 2.618219988046 0.998842364343 -0.048103338686 0.000000000000
42.878750497060 -16.959524245618 3.054589986054 0.998842364343 -0.048103338686 0.000000000000
42.878750497060 -16.959524245618 3.490959984061 0.998842364343 -0.048103338686 0.000000000000
42.878750497060 -16.959524245618 3.927329982069 0.998842364343 -0.048103338686 0.000000000000
42.878750497060 -16.959524245618 4.363699980077 0.998842364343 -0.048103338686 0.000000000000
42.878750497060 -16.959524245618 4.800069978085 0.998842364343 -0.048103338686 0.000000000000
42.878750497060 -16.959524245618 5.236439976092 0.998842364343 -0.048103338686 0.000000000000
42.878750497060 -16.959524245618 5.672809974100 0.998842364343 -0.048103338686 0.000000000000
42.878750497060 -16.959524245618 6.109179972108 0.998842364343 -0.048103338686 0.000000000000
42.878750497060 -16.959524245618 6.545549970115 0.998842364343 -0.048103338686 0.000000000000
42.878750497060 -16.959524245618 6.981919968123 0.998842364343 -0.048103338686 0.000000000000
42.892516843600 -16.562406856688 0.436369998008 0.999775675973 -0.021180125877 0.000000000000
42.892516843600 -16.562406856688 0.872739996015 0.999775675973 -0.021180125877 0.000000000000
42.892516843600 -16.562406856688 1.309109994023 0.999775675973 -0.021180125877 0.000000000000
42.892516843600 -16.562406856688 1.745479992031 0.999775675973 -0.021180125877 0.000000000000
42.892516843600 -16.562406856688 2.181849990038 0.999775675973 -0.021180125877 0.000000000000
42.892516843600 -16.562406856688 2.618219988046 0.999775675973 -0.021180125877 0.000000000000
42.892516843600 -16.562406856688 3.054589986054 0.999775675973 -0.021180125877 0.000000000000
42.892516843600 -16.562406856688 3.490959984061 0.999775675973 -0.021180125877 0.000000000000
42.892516843600 -16.562406856688 3.927329982069 0.999775675973 -0.021180125877 0.000000000000
42.892516843600 -16.562406856688 4.363699980077 0.999775675973 -0.021180125877 0.000000000000
42.892516843600 -16.562406856688 4.800069978085 0.999775675973 -0.021180125877 0.000000000000
42.892516843600 -16.562406856688 5.236439976092 0.999775675973 -0.021180125877 0.000000000000
42.892516843600 -16.562406856688 5.672809974100 0.999775675973 -0.021180125877 0.000000000000
42.892516843600 -16.562406856688 6.109179972108 0.999775675973 -0.021180125877 0.000000000000
42.892516843600 -16.562406856688 6.545549970115 0.999775675973 -0.021180125877 0.000000000000
42.892516843600 -16.562406856688 6.981919968123 0.999775675973 -0.021180125877 0.000000000000
42.895603955876 -16.169135107495 0.436369998008 0.999984971721 0.005482365594 -0.000000000000
42.895603955876 -16.169135107495 0.872739996015 0.999984971721 0.005482365594 -0.000000000000
42.895603955876 -16.169135107495 1.309109994023 0.999984971721 0.005482365594 -0.000000000000
42.895603955876 -16.169135107495 1.745479992031 0.999984971721 0.005482365594 -0.000000000000
42.895603955876 -16.169135107495 2.181849990038 0.999984971721 0.005482365594 -0.000000000000
42.895603955876 -16.169135107495 2.618219988046 0.999984971721 0.005482365594 -0.000000000000
42.895603955876 -16.169135107495 3.054589986054 0.999984971721 0.005482365594 -0.000000000000
42.895603955876 -16.169135107495 3.490959984061 0.999984971721 0.005482365594 -0.000000000000
42.895603955876 -16.169135107495 3.927329982069 0.999984971721 0.005482365594 -0.000000000000
42.895603955876 -16.169135107495 4.363699980077 0.999984971721 0.005482365594 -0.000000000000
42.895603955876 -16.169135107495 4.800069978085 0.999984971721 0.005482365594 -0.000000000000
42.895603955876 -16.169135107495 5.236439976092 0.999984971721 0.005482365594 -0.000000000000
42.895603955876 -16.169135107495 5.672809974100 0.999984971721 0.005482365594 -0.000000000000
42.895603955876 -16.169135107495 6.109179972108 0.999984971721 0.005482365594 -0.000000000000
42.895603955876 -16.169135107495 6.545549970115 0.999984971721 0.005482365594 -0.000000000000
42.895603955876 -16.169135107495 6.981919968123 0.999984971721 0.005482365594 -0.000000000000
42.888154104949 -15.774341582501 0.436369998008 0.999479897082 0.032248028305 -0.000000000000
42.888154104949 -15.774341582501 0.872739996015 0.999479897082 0.032248028305 -0.000000000000
42.888154104949 -15.774341582501 1.309109994023 0.999479897082 0.032248028305 -0.000000000000
42.888154104949 -15.774341582501 1.745479992031 0.999479897082 0.032248028305 -0.000000000000
42.888154104949 -15.774341582501 2.181849990038 0.999479897082 0.032248028305 -0.000000000000
42.888154104949 -15.774341582501 2.618219988046 0.999479897082 0.032248028305 -0.000000000000
42.888154104949 -15.774341582501 3.054589986054 0.999479897082 0.032248028305 -0.000000000000
42.888154104949 -15.774341582501 3.490959984061 0.999479897082 0.032248028305 -0.000000000000
42.888154104949 -15.774341582501 3.927329982069 0.999479897082 0.032248028305 -0.000000000000
42.888154104949 -15.774341582501 4.363699980077 0.999479897082 0.032248028305 -0.000000000000
42.888154104949 -15.774341582501 4.800069978085 0.999479897082 0.032248028305 -0.000000000000
42.888154104949 -15.774341582501 5.236439976092 0.999479897082 0.032248028305 -0.000000000000
42.888154104949 -15.774341582501 5.672809974100 0.999479897082 0.032248028305 -0.000000000000
42.888154104949 -15.774341582501 6.109179972108 0.999479897082 0.032248028305 -0.000000000000
42.888154104949 -15.774341582501 6.545549970115 0.999479897082 0.032248028305 -0.000000000000
42.888154104949 -15.774341582501 6.981919968123 0.999479897082 0.032248028305 -0.000000000000
42.869889249884 -15.375671508356 0.436369998008 0.998241601823 0.059276507908 -0.000000000000
42.869889249884 -15.375671508356 0.872739996015 0.998241601823 0.059276507908 -0.000000000000
42.869889249884 -15.375671508356 1.309109994023 0.998241601823 0.059276507908 -0.000000000000
42.869889249884 -15.375671508356 1.745479992031 0.998241601823 0.059276507908 -0.000000000000
42.869889249884 -15.375671508356 2.181849990038 0.998241601823 0.059276507908 -0.000000000000
42.869889249884 -15.375671508356 2.618219988046 0.998241601823 0.059276507908 -0.000000000000
42.869889249884 -15.375671508356 3.054589986054 0.998241601823 0.059276507908 -0.000000000000
42.869889249884 -15.375671508356 3.490959984061 0.998241601823 0.059276507908 -0.000000000000
42.869889249884 -15.375671508356 3.927329982069 0.998241601823 0.059276507908 -0.000000000000
42.869889249884 -15.375671508356 4.363699980077 0.998241601823 0.059276507908 -0.000000000000
42.869889249884 -15.375671508356 4.800069978085 0.998241601823 0.059276507908 -0.000000000000
42.869889249884 -15.375671508356 5.236439976092 0.998241601823 0.059276507908 -0.000000000000
42.869889249884 -15.375671508356 5.672809974100 0.998241601823 0.059276507908 -0.000000000000
42.869889249884 -15.375671508356 6.109179972108 0.998241601823 0.059276507908 -0.000000000000
42.869889249884 -15.375671508356 6.545549970115 0.998241601823 0.059276507908 -0.000000000000
42.869889249884 -15.375671508356 6.981919968123 0.998241601823 0.059276507908 -0.000000000000
42.840487220679 -14.973512424845 0.436369998008 0.996248243911 0.086541530519 -0.000000000000
42.840487220679 -14.973512424845 0.872739996015 0.996248243911 0.086541530519 -0.000000000000
42.840487220679 -14.973512424845 1.309109994023 0.996248243911 0.086541530519 -0.000000000000
42.840487220679 -14.973512424845 1.745479992031 0.996248243911 0.086541530519 -0.000000000000
42.840487220679 -14.973512424845 2.181849990038 0.996248243911 0.086541530519 -0.000000000000
42.840487220679 -14.973512424845 2.618219988046 0.996248243911 0.086541530519 -0.000000000000
42.840487220679 -14.973512424845 3.054589986054 0.996248243911 0.086541530519 -0.000000000000
42.840487220679 -14.973512424845 3.490959984061 0.996248243911 0.086541530519 -0.000000000000
42.840487220679 -14.973512424845 3.927329982069 0.996248243911 0.086541530519 -0.000000000000
42.840487220679 -14.973512424845 4.363699980077 0.996248243911 0.086541530519 -0.000000000000
42.840487220679 -14.973512424845 4.800069978085 0.996248243911 0.086541530519 -0.000000000000
42.840487220679 -14.973512424845 5.236439976092 0.996248243911 0.086541530519 -0.000000000000
42.840487220679 -14.973512424845 5.672809974100 0.996248243911 0.086541530519 -0.000000000000
42.840487220679 -14.973512424845 6.109179972108 0.996248243911 0.086541530519 -0.000000000000
42.840487220679 -14.973512424845 6.545549970115 0.996248243911 0.086541530519 -0.000000000000
42.840487220679 -14.973512424845 6.981919968123 0.996248243911 0.086541530519 -0.000000000000
42.799641119331 -14.568277252538 0.436369998008 0.993479016701 0.114015101523 -0.000000000000
42.799641119331 -14.568277252538 0.872739996015 0.993479016701 0.114015101523 -0.000000000000
42.799641119331 -14.568277252538 1.309109994023 0.993479016701 0.114015101523 -0.000000000000
42.799641119331 -14.568277252538 1.745479992031 0.993479016701 0.114015101523 -0.000000000000
42.799641119331 -14.568277252538 2.181849990038 0.993479016701 0.114015101523 -0.000000000000
42.799641119331 -14.568277252538 2.618219988046 0.993479016701 0.114015101523 -0.000000000000
42.799641119331 -14.568277252538 3.054589986054 0.993479016701 0.114015101523 -0.000000000000
42.799641119331 -14.568277252538 3.490959984061 0.993479016701 0.114015101523 -0.000000000000
42.799641119331 -14.568277252538 3.927329982069 0.993479016701 0.114015101523 -0.000000000000
42.799641119331 -14.568277252538 4.363699980077 0.993479016701 0.114015101523 -0.000000000000
42.799641119331 -14.568277252538 4.800069978085 0.993479016701 0.114015101523 -0.000000000000
42.799641119331 -14.568277252538 5.236439976092 0.993479016701 0.114015101523 -0.000000000000
42.799641119331 -14.568277252538 5.672809974100 0.993479016701 0.114015101523 -0.000000000000
42.799641119331 -14.568277252538 6.109179972108 0.993479016701 0.114015101523 -0.000000000000
42.799641119331 -14.568277252538 6.545549970115 0.993479016701 0.114015101523 -0.000000000000
42.799641119331 -14.568277252538 6.981919968123 0.993479016701 0.114015101523 -0.000000000000
42.747061453761 -14.160403815488 0.436369998008 0.989914293611 0.141667537933 -0.000000000000
42.747061453761 -14.160403815488 0.872739996015 0.989914293611 0.141667537933 -0.000000000000
42.747061453761 -14.160403815488 1.309109994023 0.989914293611 0.141667537933 -0.000000000000
42.747061453761 -14.160403815488 1.745479992031 0.989914293611 0.141667537933 -0.000000000000
42.747061453761 -14.160403815488 2.181849990038 0.989914293611 0.141667537933 -0.000000000000
42.747061453761 -14.160403815488 2.618219988046 0.989914293611 0.141667537933 -0.000000000000
42.747061453761 -14.160403815488 3.054589986054 0.989914293611 0.141667537933 -0.000000000000
42.747061453761 -14.160403815488 3.490959984061 0.989914293611 0.141667537933 -0.000000000000
42.747061453761 -14.160403815488 3.927329982069 0.989914293611 0.141667537933 -0.000000000000
42.747061453761 -14.160403815488 4.363699980077 0.989914293611 0.141667537933 -0.000000000000
42.747061453761 -14.160403815488 4.800069978085 0.989914293611 0.141667537933 -0.000000000000
42.747061453761 -14.160403815488 5.236439976092 0.989914293611 0.141667537933 -0.000000000000
42.747061453761 -14.160403815488 5.672809974100 0.989914293611 0.141667537933 -0.000000000000
42.747061453761 -14.160403815488 6.109179972108 0.989914293611 0.141667537933 -0.000000000000
42.747061453761 -14.160403815488 6.545549970115 0.989914293611 0.141667537933 -0.000000000000
42.747061453761 -14.160403815488 6.981919968123 0.989914293611 0.141667537933 -0.000000000000
42.682478288754 -13.750354170073 0.436369998008 0.985535773950 0.169467513893 -0.000000000000
42.682478288754 -13.750354170073 0.872739996015 0.985535773950 0.169467513893 -0.000000000000
42.682478288754 -13.750354170073 1.309109994023 0.985535773950 0.169467513893 -0.000000000000
42.682478288754 -13.750354170073 1.745479992031 0.985535773950 0.169467513893 -0.000000000000
42.682478288754 -13.750354170073 2.181849990038 0.985535773950 0.169467513893 -0.000000000000
42.682478288754 -13.750354170073 2.618219988046 0.985535773950 0.169467513893 -0.000000000000
42.682478288754 -13.750354170073 3.054589986054 0.985535773950 0.169467513893 -0.000000000000
42.682478288754 -13.750354170073 3.490959984061 0.985535773950 0.169467513893 -0.000000000000
42.682478288754 -13.750354170073 3.927329982069 0.985535773950 0.169467513893 -0.000000000000
42.682478288754 -13.750354170073 4.363699980077 0.985535773950 0.169467513893 -0.000000000000
42.682478288754 -13.750354170073 4.800069978085 0.985535773950 0.169467513893 -0.000000000000
42.682478288754 -13.750354170073 5.236439976092 0.985535773950 0.169467513893 -0.000000000000
42.682478288754 -13.750354170073 5.672809974100 0.985535773950 0.169467513893 -0.000000000000
42.682478288754 -13.750354170073 6.109179972108 0.985535773950 0.169467513893 -0.000000000000
42.682478288754 -13.750354170073 6.545549970115 0.985535773950 0.169467513893 -0.000000000000
42.682478288754 -13.750354170073 6.981919968123 0.985535773950 0.169467513893 -0.000000000000
42.605643395052 -13.338613732450 0.436369998008 0.980326628614 0.197382119834 -0.000000000000
42.605643395052 -13.338613732450 0.872739996015 0.980326628614 0.197382119834 -0.000000000000
42.605643395052 -13.338613732450 1.309109994023 0.980326628614 0.197382119834 -0.000000000000
42.605643395052 -13.338613732450 1.745479992031 0.980326628614 0.197382119834 -0.000000000000
42.605643395052 -13.338613732450 2.181849990038 0.980326628614 0.197382119834 -0.000000000000
42.605643395052 -13.338613732450 2.618219988046 0.980326628614 0.197382119834 -0.000000000000
42.605643395052 -13.338613732450 3.054589986054 0.980326628614 0.197382119834 -0.000000000000
42.605643395052 -13.338613732450 3.490959984061 0.980326628614 0.197382119834 -0.000000000000
42.605643395052 -13.338613732450 3.927329982069 0.980326628614 0.197382119834 -0.000000000000
42.605643395052 -13.338613732450 4.363699980077 0.980326628614 0.197382119834 -0.000000000000
42.605643395052 -13.338613732450 4.800069978085 0.980326628614 0.197382119834 -0.000000000000
42.605643395052 -13.338613732450 5.236439976092 0.980326628614 0.197382119834 -0.000000000000
42.605643395052 -13.338613732450 5.672809974100 0.980326628614 0.197382119834 -0.000000000000
42.605643395052 -13.338613732450 6.109179972108 0.980326628614 0.197382119834 -0.000000000000
42.605643395052 -13.338613732450 6.545549970115 0.980326628614 0.197382119834 -0.000000000000
42.605643395052 -13.338613732450 6.981919968123 0.980326628614 0.197382119834 -0.000000000000
42.516332376303 -12.925690198986 0.436369998008 0.974271644292 0.225376935662 -0.000000000000
42.516332376303 -12.925690198986 0.872739996015 0.974271644292 0.225376935662 -0.000000000000
42.516332376303 -12.925690198986 1.309109994023 0.974271644292 0.225376935662 -0.000000000000
42.516332376303 -12.925690198986 1.745479992031 0.974271644292 0.225376935662 -0.000000000000
42.516332376303 -12.925690198986 2.181849990038 0.974271644292 0.225376935662 -0.000000000000
42.516332376303 -12.925690198986 2.618219988046 0.974271644292 0.225376935662 -0.000000000000
42.516332376303 -12.925690198986 3.054589986054 0.974271644292 0.225376935662 -0.000000000000
42.516332376303 -12.925690198986 3.490959984061 0.974271644292 0.225376935662 -0.000000000000
42.516332376303 -12.925690198986 3.927329982069 0.974271644292 0.225376935662 -0.000000000000
42.516332376303 -12.925690198986 4.363699980077 0.974271644292 0.225376935662 -0.000000000000
42.516332376303 -12.925690198986 4.800069978085 0.974271644292 0.225376935662 -0.000000000000
42.516332376303 -12.925690198986 5.236439976092 0.974271644292 0.225376935662 -0.000000000000
42.516332376303 -12.925690198986 5.672809974100 0.974271644292 0.225376935662 -0.000000000000
42.516332376303 -12.925690198986 6.109179972108 0.974271644292 0.225376935662 -0.000000000000
42.516332376303 -12.925690198986 6.545549970115 0.974271644292 0.225376935662 -0.000000000000
42.516332376303 -12.925690198986 6.981919968123 0.974271644292 0.225376935662 -0.000000000000
42.414346752216 -12.512112256239 0.436369998008 0.967357364693 0.253416118221 -0.000000000000
42.414346752216 -12.512112256239 0.872739996015 0.967357364693 0.253416118221 -0.000000000000
42.414346752216 -12.512112256239 1.309109994023 0.967357364693 0.253416118221 -0.000000000000
42.414346752216 -12.512112256239 1.745479992031 0.967357364693 0.253416118221 -0.000000000000
42.414346752216 -12.512112256239 2.181849990038 0.967357364693 0.253416118221 -0.000000000000
42.414346752216 -12.512112256239 2.618219988046 0.967357364693 0.253416118221 -0.000000000000
42.414346752216 -12.512112256239 3.054589986054 0.967357364693 0.253416118221 -0.000000000000
42.414346752216 -12.512112256239 3.490959984061 0.967357364693 0.253416118221 -0.000000000000
42.414346752216 -12.512112256239 3.927329982069 0.967357364693 0.253416118221 -0.000000000000
42.414346752216 -12.512112256239 4.363699980077 0.967357364693 0.253416118221 -0.000000000000
42.414346752216 -12.512112256239 4.800069978085 0.967357364693 0.253416118221 -0.000000000000
42.414346752216 -12.512112256239 5.236439976092 0.967357364693 0.253416118221 -0.000000000000
42.414346752216 -12.512112256239 5.672809974100 0.967357364693 0.253416118221 -0.000000000000
42.414346752216 -12.512112256239 6.109179972108 0.967357364693 0.253416118221 -0.000000000000
42.414346752216 -12.512112256239 6.545549970115 0.967357364693 0.253416118221 -0.000000000000
42.414346752216 -12.512112256239 6.981919968123 0.967357364693 0.253416118221 -0.000000000000
42.299515975285 -12.098428079454 0.436369998008 0.959572227274 0.281462503088 -0.000000000000
42.299515975285 -12.098428079454 0.872739996015 0.959572227274 0.281462503088 -0.000000000000
42.299515975285 -12.098428079454 1.309109994023 0.959572227274 0.281462503088 -0.000000000000
42.299515975285 -12.098428079454 1.745479992031 0.959572227274 0.281462503088 -0.000000000000
42.299515975285 -12.098428079454 2.181849990038 0.959572227274 0.281462503088 -0.000000000000
42.299515975285 -12.098428079454 2.618219988046 0.959572227274 0.281462503088 -0.000000000000
42.299515975285 -12.098428079454 3.054589986054 0.959572227274 0.281462503088 -0.000000000000
42.299515975285 -12.098428079454 3.490959984061 0.959572227274 0.281462503088 -0.000000000000
42.299515975285 -12.098428079454 3.927329982069 0.959572227274 0.281462503088 -0.000000000000
42.299515975285 -12.098428079454 4.363699980077 0.959572227274 0.281462503088 -0.000000000000
42.299515975285 -12.098428079454 4.800069978085 0.959572227274 0.281462503088 -0.000000000000
42.299515975285 -12.098428079454 5.236439976092 0.959572227274 0.281462503088 -0.000000000000
42.299515975285 -12.098428079454 5.672809974100 0.959572227274 0.281462503088 -0.000000000000
42.299515975285 -12.098428079454 6.109179972108 0.959572227274 0.281462503088 -0.000000000000
42.299515975285 -12.098428079454 6.545549970115 0.959572227274 0.281462503088 -0.000000000000
42.299515975285 -12.098428079454 6.981919968123 0.959572227274 0.281462503088 -0.000000000000
42.171699357634 -11.685203621197 0.436369998008 0.950906693874 0.309477720597 -0.000000000000
42.171699357634 -11.685203621197 0.872739996015 0.950906693874 0.309477720597 -0.000000000000
42.171699357634 -11.685203621197 1.309109994023 0.950906693874 0.309477720597 -0.000000000000
42.171699357634 -11.685203621197 1.745479992031 0.950906693874 0.309477720597 -0.000000000000
42.171699357634 -11.685203621197 2.181849990038 0.950906693874 0.309477720597 -0.000000000000
42.171699357634 -11.685203621197 2.618219988046 0.950906693874 0.309477720597 -0.000000000000
42.171699357634 -11.685203621197 3.054589986054 0.950906693874 0.309477720597 -0.000000000000
42.171699357634 -11.685203621197 3.490959984061 0.950906693874 0.309477720597 -0.000000000000
42.171699357634 -11.685203621197 3.927329982069 0.950906693874 0.309477720597 -0.000000000000
42.171699357634 -11.685203621197 4.363699980077 0.950906693874 0.309477720597 -0.000000000000
42.171699357634 -11.685203621197 4.800069978085 0.950906693874 0.309477720597 -0.000000000000
42.171699357634 -11.685203621197 5.236439976092 0.950906693874 0.309477720597 -0.000000000000
42.171699357634 -11.685203621197 5.672809974100 0.950906693874 0.309477720597 -0.000000000000
42.171699357634 -11.685203621197 6.109179972108 0.950906693874 0.309477720597 -0.000000000000
42.171699357634 -11.685203621197 6.545549970115 0.950906693874 0.309477720597 -0.000000000000
42.171699357634 -11.685203621197 6.981919968123 0.950906693874 0.309477720597 -0.000000000000
42.030787884138 -11.273020694576 0.436369998008 0.941353373637 0.337422325791 -0.000000000000
42.030787884138 -11.273020694576 0.872739996015 0.941353373637 0.337422325791 -0.000000000000
42.030787884138 -11.273020694576 1.309109994023 0.941353373637 0.337422325791 -0.000000000000
42.030787884138 -11.273020694576 1.745479992031 0.941353373637 0.337422325791 -0.000000000000
42.030787884138 -11.273020694576 2.181849990038 0.941353373637 0.337422325791 -0.000000000000
42.030787884138 -11.273020694576 2.618219988046 0.941353373637 0.337422325791 -0.000000000000
42.030787884138 -11.273020694576 3.054589986054 0.941353373637 0.337422325791 -0.000000000000
42.030787884138 -11.273020694576 3.490959984061 0.941353373637 0.337422325791 -0.000000000000
42.030787884138 -11.273020694576 3.927329982069 0.941353373637 0.337422325791 -0.000000000000
42.030787884138 -11.273020694576 4.363699980077 0.941353373637 0.337422325791 -0.000000000000
42.030787884138 -11.273020694576 4.800069978085 0.941353373637 0.337422325791 -0.000000000000
42.030787884138 -11.273020694576 5.236439976092 0.941353373637 0.337422325791 -0.000000000000
42.030787884138 -11.273020694576 5.672809974100 0.941353373637 0.337422325791 -0.000000000000
42.030787884138 -11.273020694576 6.109179972108 0.941353373637 0.337422325791 -0.000000000000
42.030787884138 -11.273020694576 6.545549970115 0.941353373637 0.337422325791 -0.000000000000
42.030787884138 -11.273020694576 6.981919968123 0.941353373637 0.337422325791 -0.000000000000
41.876705887895 -10.862474858439 0.436369998008 0.930907136603 0.365255941801 -0.000000000000
41.876705887895 -10.862474858439 0.872739996015 0.930907136603 0.365255941801 -0.000000000000
41.876705887895 -10.862474858439 1.309109994023 0.930907136603 0.365255941801 -0.000000000000
41.876705887895 -10.862474858439 1.745479992031 0.930907136603 0.365255941801 -0.000000000000
41.876705887895 -10.862474858439 2.181849990038 0.930907136603 0.365255941801 -0.000000000000
41.876705887895 -10.862474858439 2.618219988046 0.930907136603 0.365255941801 -0.000000000000
41.876705887895 -10.862474858439 3.054589986054 0.930907136603 0.365255941801 -0.000000000000
41.876705887895 -10.862474858439 3.490959984061 0.930907136603 0.365255941801 -0.000000000000
41.876705887895 -10.862474858439 3.927329982069 0.930907136603 0.365255941801 -0.000000000000
41.876705887895 -10.862474858439 4.363699980077 0.930907136603 0.365255941801 -0.000000000000
41.876705887895 -10.862474858439 4.800069978085 0.930907136603 0.365255941801 -0.000000000000
41.876705887895 -10.862474858439 5.236439976092 0.930907136603 0.365255941801 -0.000000000000
41.876705887895 -10.862474858439 5.672809974100 0.930907136603 0.365255941801 -0.000000000000
41.876705887895 -10.862474858439 6.109179972108 0.930907136603 0.365255941801 -0.000000000000
41.876705887895 -10.862474858439 6.545549970115 0.930907136603 0.365255941801 -0.000000000000
41.876705887895 -10.862474858439 6.981919968123 0.930907136603 0.365255941801 -0.000000000000
41.709412564467 -10.454173114981 0.436369998008 0.919565216371 0.392937415933 -0.000000000000
41.709412564467 -10.454173114981 0.872739996015 0.919565216371 0.392937415933 -0.000000000000
41.709412564467 -10.454173114981 1.309109994023 0.919565216371 0.392937415933 -0.000000000000
41.709412564467 -10.454173114981 1.745479992031 0.919565216371 0.392937415933 -0.000000000000
41.709412564467 -10.454173114981 2.181849990038 0.919565216371 0.392937415933 -0.000000000000
41.709412564467 -10.454173114981 2.618219988046 0.919565216371 0.392937415933 -0.000000000000
41.709412564467 -10.454173114981 3.054589986054 0.919565216371 0.392937415933 -0.000000000000
41.709412564467 -10.454173114981 3.490959984061 0.919565216371 0.392937415933 -0.000000000000
41.709412564467 -10.454173114981 3.927329982069 0.919565216371 0.392937415933 -0.000000000000
41.709412564467 -10.454173114981 4.363699980077 0.919565216371 0.392937415933 -0.000000000000
41.709412564467 -10.454173114981 4.800069978085 0.919565216371 0.392937415933 -0.000000000000
41.709412564467 -10.454173114981 5.236439976092 0.919565216371 0.392937415933 -0.000000000000
41.709412564467 -10.454173114981 5.672809974100 0.919565216371 0.392937415933 -0.000000000000
41.709412564467 -10.454173114981 6.109179972108 0.919565216371 0.392937415933 -0.000000000000
41.709412564467 -10.454173114981 6.545549970115 0.919565216371 0.392937415933 -0.000000000000
41.709412564467 -10.454173114981 6.981919968123 0.919565216371 0.392937415933 -0.000000000000
41.528903302045 -10.048731433288 0.436369998008 0.907327300275 0.420424987574 -0.000000000000
41.528903302045 -10.048731433288 0.872739996015 0.907327300275 0.420424987574 -0.000000000000
41.528903302045 -10.048731433288 1.309109994023 0.907327300275 0.420424987574 -0.000000000000
41.528903302045 -10.048731433288 1.745479992031 0.907327300275 0.420424987574 -0.000000000000
41.528903302045 -10.048731433288 2.181849990038 0.907327300275 0.420424987574 -0.000000000000
41.528903302045 -10.048731433288 2.618219988046 0.907327300275 0.420424987574 -0.000000000000
41.528903302045 -10.048731433288 3.054589986054 0.907327300275 0.420424987574 -0.000000000000
41.528903302045 -10.048731433288 3.490959984061 0.907327300275 0.420424987574 -0.000000000000
41.528903302045 -10.048731433288 3.927329982069 0.907327300275 0.420424987574 -0.000000000000
41.528903302045 -10.048731433288 4.363699980077 0.907327300275 0.420424987574 -0.000000000000
41.528903302045 -10.048731433288 4.800069978085 0.907327300275 0.420424987574 -0.000000000000
41.528903302045 -10.048731433288 5.236439976092 0.907327300275 0.420424987574 -0.000000000000
41.528903302045 -10.048731433288 5.672809974100 0.907327300275 0.420424987574 -0.000000000000
41.528903302045 -10.048731433288 6.109179972108 0.907327300275 0.420424987574 -0.000000000000
41.528903302045 -10.048731433288 6.545549970115 0.907327300275 0.420424987574 -0.000000000000
41.528903302045 -10.048731433288 6.981919968123 0.907327300275 0.420424987574 -0.000000000000
41.335210805906 -9.646772115337 0.436369998008 0.894195605621 0.447676466757 -0.000000000000
