-0.175759 -0.234814 -0.404493
-0.167324 -0.190501 -0.430585
-0.171745 -0.205048 -0.422133
-0.183061 -0.192421 -0.423094
-0.245913 -0.235082 -0.364558
-0.231934 -0.232396 -0.375512
-0.232047 -0.248554 -0.364843
-0.228731 -0.199699 -0.395889
-0.230835 -0.21608 -0.385871
-0.243448 -0.202094 -0.385534
-0.203939 -0.242152 -0.385906
-0.217685 -0.229479 -0.385965
-0.203289 -0.226364 -0.395837
-0.213732 -0.197216 -0.405656
-0.19851 -0.194739 -0.414752
-0.20151 -0.210519 -0.405454
-0.243388 -0.137926 -0.413108
-0.252356 -0.170945 -0.394742
-0.248297 -0.154349 -0.404158
-0.259022 -0.139433 -0.402826
-0.274193 -0.140923 -0.391976
-0.259562 -0.237518 -0.35315
-0.259123 -0.221017 -0.36407
-0.283803 -0.191465 -0.362198
-0.271737 -0.20645 -0.363306
-0.285317 -0.208316 -0.351483
-0.257783 -0.204361 -0.374662
-0.255526 -0.187642 -0.384897
-0.317056 -0.144783 -0.356241
-0.330461 -0.145749 -0.343329
-0.288918 -0.14234 -0.380582
-0.303206 -0.143638 -0.368664
-0.308873 -0.177521 -0.348354
-0.306438 -0.160556 -0.358717
-0.29536 -0.176141 -0.360686
-0.278226 -0.157686 -0.382478
-0.267106 -0.172813 -0.383899
-0.281437 -0.17456 -0.372541
-0.33293 -0.162675 -0.33302
-0.343403 -0.146521 -0.329941
-0.310503 -0.19445 -0.33761
-0.321967 -0.178676 -0.335562
-0.346839 -0.18029 -0.308645
-0.334626 -0.179599 -0.322321
-0.335555 -0.196446 -0.311252
-0.259132 -0.253769 -0.341924
-0.272882 -0.239666 -0.341308
-0.298456 -0.243057 -0.316349
-0.285853 -0.241515 -0.329037
-0.284909 -0.257718 -0.317319
-0.285996 -0.225024 -0.340426
-0.298524 -0.209925 -0.339214
-0.3449 -0.246122 -0.261688
-0.333908 -0.24582 -0.275902
-0.331978 -0.261653 -0.263377
-0.33573 -0.213146 -0.299827
-0.33517 -0.229627 -0.288046
-0.347281 -0.21368 -0.285889
-0.309229 -0.260349 -0.291097
-0.322496 -0.24521 -0.289763
-0.310675 -0.24429 -0.303253
-0.323745 -0.212344 -0.313372
-0.311338 -0.211269 -0.326506
-0.311388 -0.227906 -0.315053
-0.355867 -0.147095 -0.316096
-0.35859 -0.180748 -0.294555
-0.357602 -0.163942 -0.305509
-0.367844 -0.147477 -0.301814
-0.379321 -0.147667 -0.287118
-0.355464 -0.246122 -0.247148
-0.357249 -0.230196 -0.259553
-0.380273 -0.197438 -0.253753
-0.369038 -0.213945 -0.256922
-0.379216 -0.21368 -0.241937
-0.358388 -0.213945 -0.27158
-0.358845 -0.197438 -0.283244
-0.410597 -0.147095 -0.240775
-0.419915 -0.146521 -0.22464
-0.390282 -0.147667 -0.272033
-0.400713 -0.147477 -0.256578
-0.400721 -0.18029 -0.234487
-0.401064 -0.163942 -0.245694
-0.390951 -0.180748 -0.250017
-0.380351 -0.164361 -0.276342
-0.369869 -0.180975 -0.280072
-0.380661 -0.180975 -0.265219
-0.419607 -0.162675 -0.213727
-0.42865 -0.145749 -0.208194
-0.399716 -0.196446 -0.222948
-0.409956 -0.179599 -0.218646
-0.426759 -0.177521 -0.186105
-0.418638 -0.178676 -0.202512
-0.417044 -0.19445 -0.190976
-0.35308 -0.261653 -0.234335
-0.365587 -0.24582 -0.232301
-0.384421 -0.24429 -0.201753
-0.375245 -0.24521 -0.217165
-0.372415 -0.260349 -0.204133
-0.377526 -0.229627 -0.229751
-0.388904 -0.213146 -0.226643
-0.416082 -0.237518 -0.137721
-0.408936 -0.239666 -0.154048
-0.405275 -0.253769 -0.140778
-0.414867 -0.209925 -0.179084
-0.41215 -0.225024 -0.166794
-0.422456 -0.208316 -0.162733
-0.38984 -0.257718 -0.172899
-0.401275 -0.241515 -0.170176
-0.393102 -0.243057 -0.186084
-0.406741 -0.211269 -0.1952
-0.398083 -0.212344 -0.211059
-0.395864 -0.227906 -0.198785
-0.436788 -0.144783 -0.191453
-0.434311 -0.176141 -0.169441
-0.435862 -0.160556 -0.180589
-0.444324 -0.143638 -0.17444
-0.451244 -0.14234 -0.157167
-0.422712 -0.235082 -0.121213
-0.426331 -0.221017 -0.13393
-0.445025 -0.187642 -0.124073
-0.435989 -0.204361 -0.129382
-0.441897 -0.202094 -0.112389
-0.429502 -0.20645 -0.146162
-0.432176 -0.191465 -0.157981
-0.468106 -0.137926 -0.103811
-0.472338 -0.136464 -0.0854835
-0.457529 -0.140923 -0.13964
-0.463159 -0.139433 -0.121858
-0.458513 -0.169011 -0.100391
-0.46111 -0.154349 -0.111244
-0.453408 -0.170945 -0.118017
-0.449743 -0.157686 -0.146411
-0.441283 -0.17456 -0.152537
-0.447656 -0.172813 -0.135395
-0.469744 -0.150985 -0.075027
-0.475813 -0.135131 -0.0668591
-0.455411 -0.183338 -0.0892579
-0.462936 -0.167076 -0.0825173
-0.469478 -0.163645 -0.0462324
-0.466618 -0.165236 -0.064458
-0.463 -0.179102 -0.0538654
-0.418699 -0.248554 -0.107938
-0.428809 -0.232396 -0.104535
-0.439281 -0.226364 -0.0710115
-0.434344 -0.229479 -0.0877535
-0.43004 -0.242152 -0.0746989
-0.438318 -0.21608 -0.100288
-0.447195 -0.199699 -0.0951926
-0.451656 -0.214316 -0.00748211
-0.449899 -0.216729 -0.0225866
-0.445289 -0.227041 -0.0121055
-0.45895 -0.192421 -0.0433523
-0.454537 -0.205048 -0.0328881
-0.46121 -0.190501 -0.0260705
-0.439003 -0.234814 -0.0421566
-0.447125 -0.219846 -0.0382611
-0.443564 -0.223108 -0.0544903
-0.455792 -0.194739 -0.0606219
-0.451848 -0.197216 -0.0779087
-0.447877 -0.210519 -0.0663484
-0.369798 0.214316 0.259422
-0.369913 0.202086 0.268754
-0.361003 0.214316 0.271529
-0.388544 0.176175 0.259971
-0.379194 0.189429 0.264739
-0.388452 0.190501 0.249998
-0.3578 0.190501 0.292182
-0.368961 0.189429 0.278822
-0.367312 0.176175 0.289189
-0.423398 0.11956 0.235776
-0.415273 0.134057 0.242426
-0.424242 0.135131 0.225578
-0.394908 0.132925 0.275013
-0.405485 0.13331 0.258931
-0.403485 0.118325 0.26907
-0.406992 0.163645 0.238545
-0.406692 0.148407 0.248712
-0.397744 0.162493 0.254586
-0.345625 0.135131 0.333765
-0.358877 0.134057 0.320032
-0.355062 0.11956 0.329814
-0.365031 0.162493 0.299603
-0.362207 0.148407 0.30993
-0.35263 0.163645 0.313354
-0.380577 0.118325 0.300592
-0.371551 0.13331 0.305625
-0.383581 0.132925 0.2906
-0.376735 0.161858 0.285196
-0.387655 0.161858 0.270168
-0.385962 0.147452 0.280421
-0.439529 0.105851 0.211469
-0.438105 0.0902327 0.221536
-0.43102 0.104965 0.228795
-0.450554 0.0603737 0.206216
-0.444623 0.0753645 0.214007
-0.452582 0.0760427 0.196315
-0.426365 0.0743776 0.248655
-0.435879 0.0748095 0.231463
-0.432923 0.0594998 0.241193
-0.468253 -0.000473337 0.172596
-0.46473 0.0148308 0.181345
-0.471437 0.0153047 0.163067
-0.449087 0.0140723 0.217148
-0.457276 0.0144125 0.199377
-0.453285 -0.00127573 0.208612
-0.463234 0.0458134 0.180155
-0.46061 0.0300879 0.189874
-0.455885 0.0452755 0.198168
-0.409248 0.0135493 0.2851
-0.420238 0.013577 0.268648
-0.414876 -0.00190918 0.277058
-0.4293 0.0442317 0.250667
-0.425056 0.0289422 0.259836
-0.41897 0.0440739 0.267564
-0.435454 -0.00175434 0.243505
-0.430554 0.0136601 0.251813
-0.440175 0.0138216 0.234635
-0.438905 0.044479 0.233449
-0.447772 0.0448269 0.215939
-0.444295 0.0293306 0.225431
-0.421707 0.104245 0.245881
-0.416097 0.0740652 0.265545
-0.41925 0.0891072 0.255824
-0.411612 0.103735 0.262651
-0.400765 0.103471 0.279026
-0.397603 0.0135493 0.301123
-0.403026 0.0288387 0.292822
-0.388928 0.059047 0.307161
-0.396242 0.0439896 0.30019
-0.383927 0.0440739 0.315787
-0.407939 0.0439896 0.284093
-0.41231 0.059047 0.274985
-0.364151 0.104245 0.325084
-0.350778 0.104965 0.339218
-0.389206 0.103471 0.294932
-0.376982 0.103735 0.310305
-0.368228 0.0743776 0.328658
-0.372848 0.0891072 0.319678
-0.381119 0.0740652 0.313678
-0.397393 0.0886871 0.28873
-0.405106 0.0739 0.282059
-0.393431 0.0739 0.298126
-0.346063 0.0902327 0.348196
-0.336931 0.105851 0.35266
-0.363158 0.0594998 0.3372
-0.354817 0.0748095 0.343015
-0.326554 0.0760427 0.369751
-0.340919 0.0753645 0.356719
-0.335344 0.0603737 0.364766
-0.391695 -0.00190918 0.308959
-0.385352 0.013577 0.316657
-0.359166 0.0138216 0.346121
-0.372528 0.0136601 0.331666
-0.366143 -0.00175434 0.338893
-0.37846 0.0289422 0.323961
-0.37105 0.0442317 0.330827
-0.30077 0.0153047 0.397953
-0.316077 0.0148308 0.385929
-0.308846 -0.000473337 0.391982
-0.329339 0.0452755 0.372321
-0.322914 0.0300879 0.379376
-0.314481 0.0458134 0.384872
-0.33847 -0.00127573 0.366625
-0.330921 0.0144125 0.373272
-0.345289 0.0140723 0.359996
-0.343731 0.0448269 0.359118
-0.357642 0.044479 0.345279
-0.351684 0.0293306 0.352881
-0.477255 -0.0153047 0.145161
-0.473534 -0.0311219 0.154486
-0.471191 -0.0157997 0.16364
-0.476357 -0.0616566 0.135601
-0.475261 -0.046415 0.145138
-0.480661 -0.0458134 0.126518
-0.462285 -0.0476136 0.18159
-0.469128 -0.0470301 0.163495
-0.464045 -0.0630685 0.172133
-0.474372 -0.121744 0.0957868
-0.47581 -0.106885 0.105963
-0.479889 -0.105851 0.0872556
-0.465446 -0.109141 0.142521
-0.470985 -0.108002 0.12438
-0.464618 -0.124342 0.132274
-0.481541 -0.0760427 0.107185
-0.476628 -0.0919079 0.116002
-0.476812 -0.0768269 0.125886
-0.436627 -0.112949 0.212408
-0.444796 -0.112179 0.19535
-0.437054 -0.128893 0.202057
-0.458294 -0.0792645 0.180351
-0.451877 -0.0956337 0.188103
-0.450751 -0.0799553 0.197965
-0.452118 -0.126846 0.167693
-0.452333 -0.11127 0.178009
-0.459221 -0.110245 0.160398
-0.465164 -0.0784877 0.162463
-0.471344 -0.0776602 0.144309
-0.465631 -0.0938512 0.152589
-0.4644 -0.0162731 0.181868
-0.454747 -0.0481306 0.199415
-0.459895 -0.0321458 0.190826
-0.45689 -0.0166908 0.199835
-0.448673 -0.0170303 0.217528
-0.427832 -0.113561 0.229161
-0.435505 -0.0969726 0.222496
-0.431223 -0.0650281 0.241848
-0.4337 -0.0809906 0.232312
-0.424217 -0.0813236 0.248997
-0.442549 -0.0805346 0.215292
-0.448964 -0.0642551 0.207585
-0.419902 -0.0175239 0.268707
-0.408991 -0.017551 0.285024
-0.439759 -0.0172805 0.234923
-0.430163 -0.0174412 0.251994
-0.417901 -0.0492483 0.267635
-0.424311 -0.0332674 0.260052
-0.428089 -0.0491114 0.251097
-0.443454 -0.032891 0.226072
-0.446527 -0.0485582 0.216957
-0.437637 -0.0488851 0.234193
-0.402592 -0.0333607 0.292505
-0.397453 -0.017551 0.300903
-0.410939 -0.0653845 0.274706
-0.407091 -0.0493146 0.283771
-0.383668 -0.0492483 0.314748
-0.395676 -0.0493146 0.299482
-0.388242 -0.0653845 0.305941
-0.419527 -0.130279 0.23526
-0.418426 -0.114016 0.245584
-0.397857 -0.114467 0.277362
-0.408428 -0.114317 0.261657
-0.399648 -0.130963 0.267138
-0.416619 -0.0977618 0.255606
-0.414118 -0.0815425 0.265315
-0.350147 -0.113561 0.336074
-0.36286 -0.114016 0.322057
-0.353381 -0.130279 0.326293
-0.380294 -0.0815425 0.311866
-0.371832 -0.0977618 0.317243
-0.367895 -0.0813236 0.32651
-0.377557 -0.130963 0.297539
-0.375058 -0.114317 0.307583
-0.386728 -0.114467 0.292677
-0.392141 -0.0816513 0.29677
-0.40342 -0.0816513 0.281246
-0.39535 -0.0980212 0.287242
-0.385305 -0.0175239 0.316318
-0.371088 -0.0491114 0.329544
-0.378436 -0.0332674 0.323184
-0.372581 -0.0174412 0.331239
-0.359312 -0.0172805 0.345637
-0.336934 -0.112949 0.349614
-0.346181 -0.0969726 0.345431
-0.336159 -0.0642551 0.362834
-0.341507 -0.0805346 0.354354
-0.327563 -0.0799553 0.367506
-0.354957 -0.0809906 0.340681
-0.363261 -0.0650281 0.335382
-0.316473 -0.0162731 0.385455
-0.301238 -0.0157997 0.397545
-0.345523 -0.0170303 0.359485
-0.331239 -0.0166908 0.372764
-0.315555 -0.0476136 0.383532
-0.3236 -0.0321458 0.378405
-0.330177 -0.0481306 0.370858
-0.352036 -0.032891 0.351884
-0.357962 -0.0488851 0.343844
-0.344318 -0.0485582 0.357623
-0.293258 -0.0311219 0.402603
-0.285539 -0.0153047 0.409021
-0.307106 -0.0630685 0.388129
-0.300462 -0.0470301 0.39563
-0.268861 -0.0458134 0.418025
-0.284901 -0.046415 0.407135
-0.27617 -0.0616566 0.411125
-0.327222 -0.128893 0.353217
-0.323236 -0.112179 0.362652
-0.294455 -0.110245 0.38717
-0.309074 -0.11127 0.375177
-0.299198 -0.126846 0.378161
-0.318532 -0.0956337 0.371623
-0.313143 -0.0792645 0.38012
-0.231284 -0.105851 0.429429
-0.247815 -0.106885 0.419768
-0.237694 -0.121744 0.421547
-0.267071 -0.0768269 0.414562
-0.257614 -0.0919079 0.417442
-0.250747 -0.0760427 0.424839
-0.269378 -0.124342 0.400993
-0.263838 -0.108002 0.409487
-0.279379 -0.109141 0.398614
-0.282901 -0.0776602 0.403668
-0.298256 -0.0784877 0.39218
-0.28901 -0.0938512 0.395677
-0.475813 -0.135131 0.0668591
-0.469744 -0.150985 0.075027
-0.472338 -0.136464 0.0854835
-0.463 -0.179102 0.0538654
-0.466618 -0.165236 0.064458
-0.469478 -0.163645 0.0462324
-0.458513 -0.169011 0.100391
-0.462936 -0.167076 0.0825173
-0.455411 -0.183338 0.0892579
-0.445289 -0.227041 0.0121055
-0.449899 -0.216729 0.0225866
-0.451656 -0.214316 0.00748211
-0.443564 -0.223108 0.0544903
-0.447125 -0.219846 0.0382611
-0.439003 -0.234814 0.0421566
-0.46121 -0.190501 0.0260705
-0.454537 -0.205048 0.0328881
-0.45895 -0.192421 0.0433523
-0.422712 -0.235082 0.121213
-0.428809 -0.232396 0.104535
-0.418699 -0.248554 0.107938
-0.447195 -0.199699 0.0951926
-0.438318 -0.21608 0.100288
-0.441897 -0.202094 0.112389
-0.43004 -0.242152 0.0746989
-0.434344 -0.229479 0.0877535
-0.439281 -0.226364 0.0710115
-0.451848 -0.197216 0.0779087
-0.455792 -0.194739 0.0606219
-0.447877 -0.210519 0.0663484
-0.468106 -0.137926 0.103811
-0.453408 -0.170945 0.118017
-0.46111 -0.154349 0.111244
-0.463159 -0.139433 0.121858
-0.457529 -0.140923 0.13964
-0.416082 -0.237518 0.137721
-0.426331 -0.221017 0.13393
-0.432176 -0.191465 0.157981
-0.429502 -0.20645 0.146162
-0.422456 -0.208316 0.162733
-0.435989 -0.204361 0.129382
-0.445025 -0.187642 0.124073
-0.436788 -0.144783 0.191453
-0.42865 -0.145749 0.208194
-0.451244 -0.14234 0.157167
-0.444324 -0.143638 0.17444
-0.426759 -0.177521 0.186105
-0.435862 -0.160556 0.180589
-0.434311 -0.176141 0.169441
-0.449743 -0.157686 0.146411
-0.447656 -0.172813 0.135395
-0.441283 -0.17456 0.152537
-0.419607 -0.162675 0.213727
-0.419915 -0.146521 0.22464
-0.417044 -0.19445 0.190976
-0.418638 -0.178676 0.202512
-0.400721 -0.18029 0.234487
-0.409956 -0.179599 0.218646
-0.399716 -0.196446 0.222948
-0.405275 -0.253769 0.140778
-0.408936 -0.239666 0.154048
-0.393102 -0.243057 0.186084
-0.401275 -0.241515 0.170176
-0.38984 -0.257718 0.172899
-0.41215 -0.225024 0.166794
-0.414867 -0.209925 0.179084
-0.355464 -0.246122 0.247148
-0.365587 -0.24582 0.232301
-0.35308 -0.261653 0.234335
-0.388904 -0.213146 0.226643
-0.377526 -0.229627 0.229751
-0.379216 -0.21368 0.241937
-0.372415 -0.260349 0.204133
-0.375245 -0.24521 0.217165
-0.384421 -0.24429 0.201753
-0.398083 -0.212344 0.211059
-0.406741 -0.211269 0.1952
-0.395864 -0.227906 0.198785
-0.410597 -0.147095 0.240775
-0.390951 -0.180748 0.250017
-0.401064 -0.163942 0.245694
-0.400713 -0.147477 0.256578
-0.390282 -0.147667 0.272033
-0.3449 -0.246122 0.261688
-0.357249 -0.230196 0.259553
-0.358845 -0.197438 0.283244
-0.358388 -0.213945 0.27158
-0.347281 -0.21368 0.285889
-0.369038 -0.213945 0.256922
-0.380273 -0.197438 0.253753
-0.355867 -0.147095 0.316096
-0.343403 -0.146521 0.329941
-0.379321 -0.147667 0.287118
-0.367844 -0.147477 0.301814
-0.346839 -0.18029 0.308645
-0.357602 -0.163942 0.305509
-0.35859 -0.180748 0.294555
-0.380351 -0.164361 0.276342
-0.380661 -0.180975 0.265219
-0.369869 -0.180975 0.280072
-0.33293 -0.162675 0.33302
-0.330461 -0.145749 0.343329
-0.335555 -0.196446 0.311252
-0.334626 -0.179599 0.322321
-0.308873 -0.177521 0.348354
-0.321967 -0.178676 0.335562
-0.310503 -0.19445 0.33761
-0.331978 -0.261653 0.263377
-0.333908 -0.24582 0.275902
-0.310675 -0.24429 0.303253
-0.322496 -0.24521 0.289763
-0.309229 -0.260349 0.291097
-0.33517 -0.229627 0.288046
-0.33573 -0.213146 0.299827
-0.259562 -0.237518 0.35315
-0.272882 -0.239666 0.341308
-0.259132 -0.253769 0.341924
-0.298524 -0.209925 0.339214
-0.285996 -0.225024 0.340426
-0.285317 -0.208316 0.351483
-0.284909 -0.257718 0.317319
-0.285853 -0.241515 0.329037
-0.298456 -0.243057 0.316349
-0.311338 -0.211269 0.326506
-0.323745 -0.212344 0.313372
-0.311388 -0.227906 0.315053
-0.317056 -0.144783 0.356241
-0.29536 -0.176141 0.360686
-0.306438 -0.160556 0.358717
-0.303206 -0.143638 0.368664
-0.288918 -0.14234 0.380582
-0.245913 -0.235082 0.364558
-0.259123 -0.221017 0.36407
-0.255526 -0.187642 0.384897
-0.257783 -0.204361 0.374662
-0.243448 -0.202094 0.385534
-0.271737 -0.20645 0.363306
-0.283803 -0.191465 0.362198
-0.243388 -0.137926 0.413108
-0.227266 -0.136464 0.422798
-0.274193 -0.140923 0.391976
-0.259022 -0.139433 0.402826
-0.237172 -0.169011 0.405044
-0.248297 -0.154349 0.404158
-0.252356 -0.170945 0.394742
-0.278226 -0.157686 0.382478
-0.281437 -0.17456 0.372541
-0.267106 -0.172813 0.383899
-0.216521 -0.150985 0.423564
-0.210627 -0.135131 0.431859
-0.225626 -0.183338 0.405536
-0.221541 -0.167076 0.414775
-0.189054 -0.163645 0.432213
-0.205503 -0.165236 0.423859
-0.194311 -0.179102 0.423694
-0.232047 -0.248554 0.364843
-0.231934 -0.232396 0.375512
-0.203289 -0.226364 0.395837
-0.217685 -0.229479 0.385965
-0.203939 -0.242152 0.385906
-0.230835 -0.21608 0.385871
-0.228731 -0.199699 0.395889
-0.146692 -0.214316 0.427247
-0.160514 -0.216729 0.420907
-0.149121 -0.227041 0.419764
-0.183061 -0.192421 0.423094
-0.171745 -0.205048 0.422133
-0.167324 -0.190501 0.430585
-0.175759 -0.234814 0.404493
-0.174564 -0.219846 0.413423
-0.1889 -0.223108 0.40502
-0.19851 -0.194739 0.414752
-0.213732 -0.197216 0.405656
-0.20151 -0.210519 0.405454
0.13246 0.214316 0.431872
0.1413 0.202086 0.434866
0.146692 0.214316 0.427247
0.12719 0.176175 0.449867
0.134613 0.189429 0.442451
0.117733 0.190501 0.446698
0.167324 0.190501 0.430585
0.15117 0.189429 0.437072
0.161537 0.176175 0.438709
0.0934075 0.11956 0.475525
0.102242 0.134057 0.469855
0.0834493 0.135131 0.473175
0.139525 0.132925 0.460566
0.120963 0.13331 0.465651
0.131223 0.118325 0.466884
0.101111 0.163645 0.460785
0.110873 0.148407 0.463641
0.119225 0.162493 0.45695
0.210627 0.135131 0.431859
0.193472 0.134057 0.440219
0.203952 0.11956 0.439614
0.172145 0.162493 0.439757
0.182837 0.148407 0.440263
0.189054 0.163645 0.432213
0.168278 0.118325 0.454847
0.175855 0.13331 0.44782
0.157848 0.132925 0.454615
0.154827 0.161858 0.446434
0.13716 0.161858 0.452173
0.147433 0.147452 0.453733
0.0653077 0.105851 0.48335
0.0753196 0.0902327 0.485108
0.0844131 0.104965 0.480614
0.0569023 0.0603737 0.492214
0.0661455 0.0753645 0.48898
0.0468613 0.0760427 0.491081
0.104735 0.0743776 0.482331
0.0854468 0.0748095 0.486063
0.095611 0.0594998 0.486262
0.019458 -0.000473337 0.498662
0.0288682 0.0148308 0.498014
0.00941412 0.0153047 0.498744
0.0677476 0.0140723 0.494207
0.0483186 0.0144125 0.496501
0.0583326 -0.00127573 0.495561
0.0282008 0.0458134 0.49622
0.0382527 0.0300879 0.49673
0.0476011 0.0452755 0.494799
0.144679 0.0135493 0.477327
0.125636 0.013577 0.482694
0.135291 -0.00190918 0.480196
0.10574 0.0442317 0.485747
0.115768 0.0289422 0.484549
0.124999 0.0440739 0.481149
0.0970239 -0.00175434 0.489393
0.10644 0.0136601 0.487299
0.0871313 0.0138216 0.491138
0.0863976 0.044479 0.489558
0.0670079 0.0448269 0.492577
0.0771061 0.0293306 0.492207
0.10354 0.104245 0.477041
0.123968 0.0740652 0.477789
0.113753 0.0891072 0.47778
0.122606 0.103735 0.472628
0.141529 0.103471 0.467376
0.163514 0.0135493 0.471207
0.153945 0.0288387 0.473797
0.171939 0.059047 0.464821
0.163049 0.0439896 0.469622
0.181688 0.0440739 0.462733
0.144127 0.0439896 0.47577
0.134115 0.059047 0.477109
0.196645 0.104245 0.446796
0.21422 0.104965 0.438447
0.160227 0.103471 0.461302
0.178624 0.103735 0.454431
0.198782 0.0743776 0.451779
0.188815 0.0891072 0.453397
0.180552 0.0740652 0.459409
0.151798 0.0886871 0.467171
0.143069 0.0739 0.472444
0.161956 0.0739 0.466309
0.224216 0.0902327 0.436736
0.231284 0.105851 0.429429
0.208473 0.0594998 0.449597
0.216581 0.0748095 0.443461
0.250747 0.0760427 0.424839
0.233913 0.0753645 0.434477
0.243289 0.0603737 0.431659
0.172795 -0.00190918 0.468009
0.182075 0.013577 0.464355
0.218193 0.0138216 0.448553
0.200314 0.0136601 0.456796
0.209162 -0.00175434 0.452954
0.191152 0.0289422 0.460058
0.199972 0.0442317 0.455133
0.285539 0.0153047 0.409021
0.269372 0.0148308 0.419866
0.277365 -0.000473337 0.414857
0.252331 0.0452755 0.42828
0.261028 0.0300879 0.424346
0.268861 0.0458134 0.418025
0.244092 -0.00127573 0.4352
0.252747 0.0144125 0.430075
0.235679 0.0140723 0.439641
0.235324 0.0448269 0.437891
0.217862 0.044479 0.446846
0.226934 0.0293306 0.443527
-0.00941412 -0.0153047 0.498744
0.000601885 -0.0311219 0.498088
0.0100324 -0.0157997 0.498689
-0.0182323 -0.0616566 0.494934
-0.00882325 -0.046415 0.49684
-0.0282008 -0.0458134 0.49622
0.0298518 -0.0476136 0.495769
0.0105295 -0.0470301 0.496683
0.0203137 -0.0630685 0.494521
-0.0554904 -0.121744 0.480742
-0.0462549 -0.106885 0.485254
-0.0653076 -0.105851 0.48335
-0.00828394 -0.109141 0.4867
-0.027249 -0.108002 0.486358
-0.0177743 -0.124342 0.482744
-0.0468613 -0.0760427 0.491081
-0.0369592 -0.0919079 0.489134
-0.0276147 -0.0768269 0.492364
0.0670876 -0.112949 0.4809
0.04834 -0.112179 0.483396
0.0571117 -0.128893 0.478107
0.0299053 -0.0792645 0.491592
0.0392602 -0.0956337 0.487887
0.0489874 -0.0799553 0.489865
0.019774 -0.126846 0.481809
0.0295187 -0.11127 0.4852
0.0106404 -0.110245 0.486307
0.0107711 -0.0784877 0.492595
-0.00840397 -0.0776602 0.492859
0.00123495 -0.0938512 0.489987
0.029465 -0.0162731 0.497865
0.0491328 -0.0481306 0.494113
0.0393748 -0.0321458 0.496352
0.0488718 -0.0166908 0.496278
0.0682354 -0.0170303 0.493934
0.085739 -0.113561 0.477715
0.0770283 -0.0969726 0.482951
0.0967555 -0.0650281 0.484862
0.0869215 -0.0809906 0.484269
0.105719 -0.0813236 0.480408
0.0680007 -0.0805346 0.487423
0.0586894 -0.0642551 0.49114
0.125796 -0.0175239 0.482394
0.144685 -0.017551 0.477062
0.0875317 -0.0172805 0.490835
0.106731 -0.0174412 0.486987
0.125396 -0.0492483 0.480162
0.116202 -0.0332674 0.483913
0.106519 -0.0491114 0.484739
0.0779722 -0.032891 0.491614
0.0683546 -0.0485582 0.49172
0.0874935 -0.0488851 0.488594
0.153779 -0.0333607 0.473287
0.163353 -0.017551 0.470996
0.134273 -0.0653845 0.475724
0.144083 -0.0493146 0.474867
0.180784 -0.0492483 0.462159
0.162554 -0.0493146 0.468863
0.170997 -0.0653845 0.463787
0.0941064 -0.130279 0.471701
0.104266 -0.114016 0.473844
0.140849 -0.114467 0.464098
0.122644 -0.114317 0.469302
0.130572 -0.130963 0.462642
0.114355 -0.0977618 0.475223
0.124361 -0.0815425 0.475846
0.211438 -0.113561 0.436857
0.194177 -0.114016 0.444618
0.201138 -0.130279 0.43691
0.17909 -0.0815425 0.458056
0.186823 -0.0977618 0.451666
0.196853 -0.0813236 0.450786
0.166316 -0.130963 0.451022
0.17664 -0.114317 0.451749
0.158856 -0.114467 0.458245
0.161071 -0.0816513 0.464661
0.142819 -0.0816513 0.470594
0.151018 -0.0980212 0.464768
0.181769 -0.0175239 0.464204
0.198747 -0.0491114 0.454765
0.190425 -0.0332674 0.459792
0.199894 -0.0174412 0.456712
0.217689 -0.0172805 0.448538
0.228398 -0.112949 0.428471
0.22156 -0.0969726 0.435975
0.241205 -0.0642551 0.431824
0.23149 -0.0805346 0.434288
0.248306 -0.0799553 0.425089
0.214329 -0.0809906 0.442858
0.20672 -0.0650281 0.449121
0.268801 -0.0162731 0.420094
0.285006 -0.0157997 0.409338
0.235123 -0.0170303 0.439702
0.252168 -0.0166908 0.430217
0.267255 -0.0476136 0.418622
0.259894 -0.0321458 0.424692
0.250684 -0.0481306 0.428614
0.225882 -0.032891 0.443547
0.216405 -0.0488851 0.446697
0.233726 -0.0485582 0.437976
0.292281 -0.0311219 0.403309
0.30077 -0.0153047 0.397953
0.274237 -0.0630685 0.412006
0.283424 -0.0470301 0.408007
0.314481 -0.0458134 0.384872
0.299172 -0.046415 0.396761
0.305661 -0.0616566 0.38969
0.234828 -0.128893 0.420348
0.24503 -0.112179 0.419473
0.277236 -0.110245 0.399676
0.261315 -0.11127 0.409873
0.267205 -0.126846 0.401404
0.255014 -0.0956337 0.417772
0.264758 -0.0792645 0.415273
0.336931 -0.105851 0.35266
0.322637 -0.106885 0.365395
0.327456 -0.121744 0.356318
0.31174 -0.0768269 0.382099
0.317399 -0.0919079 0.373996
0.326554 -0.0760427 0.369751
0.298126 -0.124342 0.3801
0.307913 -0.108002 0.377456
0.292774 -0.109141 0.388876
0.296492 -0.0776602 0.393788
0.280825 -0.0784877 0.40484
0.287006 -0.0938512 0.397127
-0.0834492 -0.135131 0.473175
-0.0738063 -0.150985 0.46993
-0.0646621 -0.136464 0.475625
-0.09185 -0.179102 0.456985
-0.0828931 -0.165236 0.463695
-0.101111 -0.163645 0.460785
-0.0462136 -0.169011 0.467091
-0.0645793 -0.167076 0.465774
-0.0558438 -0.183338 0.460705
-0.126094 -0.227041 0.427246
-0.11755 -0.216729 0.434869
-0.132459 -0.214316 0.431872
-0.0852501 -0.223108 0.438703
-0.101785 -0.219846 0.437074
-0.0955702 -0.234814 0.430553
-0.117733 -0.190501 0.446698
-0.109186 -0.205048 0.442461
-0.100598 -0.192421 0.449889
-0.0153478 -0.235082 0.439488
-0.0330944 -0.232396 0.440132
-0.0267331 -0.248554 0.431568
-0.0476614 -0.199699 0.454729
-0.040072 -0.21608 0.447863
-0.0296687 -0.202094 0.455004
-0.0618504 -0.242152 0.432085
-0.050765 -0.229479 0.440212
-0.0682134 -0.226364 0.439733
-0.0655371 -0.197216 0.453811
-0.083197 -0.194739 0.452221
-0.0753048 -0.210519 0.446466
-0.0459236 -0.137926 0.477266
-0.0278733 -0.170945 0.467685
-0.0366928 -0.154349 0.472913
-0.0272315 -0.139433 0.47814
-0.00857961 -0.140923 0.478283
0.00240145 -0.237518 0.438283
-0.00437196 -0.221017 0.446859
0.0166976 -0.191465 0.45985
0.0062833 -0.20645 0.453654
0.0242207 -0.208316 0.452073
-0.0116815 -0.204361 0.454638
-0.0195228 -0.187642 0.461588
0.0471082 -0.144783 0.474578
0.0655448 -0.145749 0.472011
0.0100321 -0.14234 0.477724
0.0285983 -0.143638 0.476484
0.0451209 -0.177521 0.463388
0.0370608 -0.160556 0.470339
0.0269383 -0.176141 0.46542
0.000266204 -0.157686 0.472975
-0.00956701 -0.172813 0.467586
0.00870529 -0.17456 0.466824
0.0736032 -0.162675 0.465122
0.0838868 -0.146521 0.468788
0.0527564 -0.19445 0.455654
0.0632367 -0.178676 0.460735
0.0991868 -0.18029 0.453574
0.0812655 -0.179599 0.457462
0.0885235 -0.196446 0.449052
0.00865004 -0.253769 0.428949
0.0201392 -0.239666 0.436532
0.0555046 -0.243057 0.431369
0.037847 -0.241515 0.434229
0.0439708 -0.257718 0.424192
0.031269 -0.225024 0.443527
0.042119 -0.209925 0.44991
0.125221 -0.246122 0.414434
0.107971 -0.24582 0.419475
0.113771 -0.261653 0.408207
0.0953808 -0.213146 0.439908
0.101854 -0.229627 0.430046
0.112922 -0.21368 0.435418
0.0790659 -0.260349 0.417267
0.0905869 -0.24521 0.423986
0.0730913 -0.24429 0.427954
0.0777195 -0.212344 0.443825
0.0599587 -0.211269 0.447161
0.0667316 -0.227906 0.437922
0.102113 -0.147095 0.46491
0.11698 -0.180748 0.449078
0.10974 -0.163942 0.457362
0.120201 -0.147477 0.460392
0.138125 -0.147667 0.455245
0.142319 -0.246122 0.408878
0.136471 -0.230196 0.419965
0.158511 -0.197438 0.428804
0.147557 -0.213945 0.424764
0.164601 -0.21368 0.418621
0.130322 -0.213945 0.430366
0.123835 -0.197438 0.440074
0.190672 -0.147095 0.436123
0.207694 -0.146521 0.428544
0.155861 -0.147667 0.449479
0.173386 -0.147477 0.443103
0.186381 -0.18029 0.425232
0.180069 -0.163942 0.434501
0.169346 -0.180748 0.432056
0.145294 -0.164361 0.447128
0.13462 -0.180975 0.443987
0.152083 -0.180975 0.43831
0.21386 -0.162675 0.419535
0.224426 -0.145749 0.420372
0.19235 -0.196446 0.415306
0.203162 -0.179599 0.417843
0.23588 -0.177521 0.401395
0.219668 -0.178676 0.409895
0.225162 -0.19445 0.399626
0.14792 -0.261653 0.397109
0.159237 -0.24582 0.402815
0.192435 -0.24429 0.389172
0.17595 -0.24521 0.396246
0.18132 -0.260349 0.38404
0.170398 -0.229627 0.407769
0.181429 -0.213146 0.411942
0.255684 -0.237518 0.355985
0.240308 -0.239666 0.364991
0.245144 -0.253769 0.352106
0.23039 -0.209925 0.388728
0.235416 -0.225024 0.37719
0.246138 -0.208316 0.379961
0.213779 -0.257718 0.369016
0.224631 -0.241515 0.373535
0.208667 -0.243057 0.381599
0.214344 -0.211269 0.396988
0.198018 -0.212344 0.404729
0.203437 -0.227906 0.393497
0.240847 -0.144783 0.411614
0.251782 -0.176141 0.392354
0.246484 -0.160556 0.40228
0.25694 -0.143638 0.40228
0.272685 -0.14234 0.392375
0.270749 -0.235082 0.346529
0.266202 -0.221017 0.358941
0.287109 -0.187642 0.361955
0.276684 -0.204361 0.360938
0.291447 -0.202094 0.350665
0.261576 -0.20645 0.3707
0.256793 -0.191465 0.38183
0.317675 -0.137926 0.359128
0.331868 -0.136464 0.346789
0.288067 -0.140923 0.381893
0.30307 -0.139433 0.370818
0.311931 -0.169011 0.350724
0.307651 -0.154349 0.36103
0.297446 -0.170945 0.361981
0.277794 -0.157686 0.382795
0.267355 -0.17456 0.382777
0.282581 -0.172813 0.372658
0.335918 -0.150985 0.336806
0.345625 -0.135131 0.333765
0.315968 -0.183338 0.339895
0.326012 -0.167076 0.338864
0.35263 -0.163645 0.313354
0.339604 -0.165236 0.326417
0.342907 -0.179102 0.315722
0.275305 -0.248554 0.33343
0.285481 -0.232396 0.336618
0.313653 -0.226364 0.315654
0.299821 -0.229479 0.326297
0.304012 -0.242152 0.313206
0.295667 -0.21608 0.338773
0.305839 -0.199699 0.339868
0.361003 -0.214316 0.271529
0.350702 -0.216729 0.282716
0.353135 -0.227041 0.271528
0.345813 -0.192421 0.304835
0.348396 -0.205048 0.293776
0.3578 -0.190501 0.292182
0.330387 -0.234814 0.292145
0.339245 -0.219846 0.293767
0.326827 -0.223108 0.304805
0.333109 -0.194739 0.316952
0.319758 -0.197216 0.32862
0.323343 -0.210519 0.316933
0.369913 -0.202086 -0.268754
0.367312 -0.176175 -0.289189
0.368961 -0.189429 -0.278822
0.379194 -0.189429 -0.264739
0.388544 -0.176175 -0.259971
0.355062 -0.11956 -0.329814
0.358877 -0.134057 -0.320032
0.383581 -0.132925 -0.2906
0.371551 -0.13331 -0.305625
0.380577 -0.118325 -0.300592
0.362207 -0.148407 -0.30993
0.365031 -0.162493 -0.299603
0.415273 -0.134057 -0.242426
0.423398 -0.11956 -0.235776
0.397744 -0.162493 -0.254586
0.406692 -0.148407 -0.248712
0.403485 -0.118325 -0.26907
0.405485 -0.13331 -0.258931
0.394908 -0.132925 -0.275013
0.387655 -0.161858 -0.270168
0.376735 -0.161858 -0.285196
0.385962 -0.147452 -0.280421
0.346063 -0.0902327 -0.348196
0.350778 -0.104965 -0.339218
0.335344 -0.0603737 -0.364766
0.340919 -0.0753645 -0.356719
0.368228 -0.0743776 -0.328658
0.354817 -0.0748095 -0.343015
0.363158 -0.0594998 -0.3372
0.308846 0.000473337 -0.391982
0.316077 -0.0148308 -0.385929
0.345289 -0.0140723 -0.359996
0.330921 -0.0144125 -0.373272
0.33847 0.00127573 -0.366625
0.322914 -0.0300879 -0.379376
0.329339 -0.0452755 -0.372321
0.397603 -0.0135493 -0.301123
0.385352 -0.013577 -0.316657
0.391695 0.00190918 -0.308959
0.37105 -0.0442317 -0.330827
0.37846 -0.0289422 -0.323961
0.383927 -0.0440739 -0.315787
0.366143 0.00175434 -0.338893
0.372528 -0.0136601 -0.331666
0.359166 -0.0138216 -0.346121
0.357642 -0.044479 -0.345279
0.343731 -0.0448269 -0.359118
0.351684 -0.0293306 -0.352881
0.364151 -0.104245 -0.325084
0.381119 -0.0740652 -0.313678
0.372848 -0.0891072 -0.319678
0.376982 -0.103735 -0.310305
0.389206 -0.103471 -0.294932
0.409248 -0.0135493 -0.2851
0.403026 -0.0288387 -0.292822
0.41231 -0.059047 -0.274985
0.407939 -0.0439896 -0.284093
0.41897 -0.0440739 -0.267564
0.396242 -0.0439896 -0.30019
0.388928 -0.059047 -0.307161
0.421707 -0.104245 -0.245881
0.43102 -0.104965 -0.228795
0.400765 -0.103471 -0.279026
0.411612 -0.103735 -0.262651
0.426365 -0.0743776 -0.248655
0.41925 -0.0891072 -0.255824
0.416097 -0.0740652 -0.265545
0.397393 -0.0886871 -0.28873
0.393431 -0.0739 -0.298126
0.405106 -0.0739 -0.282059
0.438105 -0.0902327 -0.221536
0.432923 -0.0594998 -0.241193
0.435879 -0.0748095 -0.231463
0.444623 -0.0753645 -0.214007
0.450554 -0.0603737 -0.206216
0.414876 0.00190918 -0.277058
0.420238 -0.013577 -0.268648
0.440175 -0.0138216 -0.234635
0.430554 -0.0136601 -0.251813
0.435454 0.00175434 -0.243505
0.425056 -0.0289422 -0.259836
0.4293 -0.0442317 -0.250667
0.46473 -0.0148308 -0.181345
0.468253 0.000473337 -0.172596
0.455885 -0.0452755 -0.198168
0.46061 -0.0300879 -0.189874
0.453285 0.00127573 -0.208612
0.457276 -0.0144125 -0.199377
0.449087 -0.0140723 -0.217148
0.447772 -0.0448269 -0.215939
0.438905 -0.044479 -0.233449
0.444295 -0.0293306 -0.225431
0.293258 0.0311219 -0.402603
0.301238 0.0157997 -0.397545
0.27617 0.0616566 -0.411125
0.284901 0.046415 -0.407135
0.315555 0.0476136 -0.383532
0.300462 0.0470301 -0.39563
0.307106 0.0630685 -0.388129
0.237694 0.121744 -0.421547
0.247815 0.106885 -0.419768
0.279379 0.109141 -0.398614
0.263838 0.108002 -0.409487
0.269378 0.124342 -0.400993
0.257614 0.0919079 -0.417442
0.267071 0.0768269 -0.414562
0.336934 0.112949 -0.349614
0.323236 0.112179 -0.362652
0.327222 0.128893 -0.353217
0.313143 0.0792645 -0.38012
0.318532 0.0956337 -0.371623
0.327563 0.0799553 -0.367506
0.299198 0.126846 -0.378161
0.309074 0.11127 -0.375177
0.294455 0.110245 -0.38717
0.298256 0.0784877 -0.39218
0.282901 0.0776602 -0.403668
0.28901 0.0938512 -0.395677
0.316473 0.0162731 -0.385455
0.330177 0.0481306 -0.370858
0.3236 0.0321458 -0.378405
0.331239 0.0166908 -0.372764
0.345523 0.0170303 -0.359485
0.350147 0.113561 -0.336074
0.346181 0.0969726 -0.345431
0.363261 0.0650281 -0.335382
0.354957 0.0809906 -0.340681
0.367895 0.0813236 -0.32651
0.341507 0.0805346 -0.354354
0.336159 0.0642551 -0.362834
0.385305 0.0175239 -0.316318
0.397453 0.017551 -0.300903
0.359312 0.0172805 -0.345637
0.372581 0.0174412 -0.331239
0.383668 0.0492483 -0.314748
0.378436 0.0332674 -0.323184
0.371088 0.0491114 -0.329544
0.352036 0.032891 -0.351884
0.344318 0.0485582 -0.357623
0.357962 0.0488851 -0.343844
0.402592 0.0333607 -0.292505
0.408991 0.017551 -0.285024
0.388242 0.0653845 -0.305941
0.395676 0.0493146 -0.299482
0.417901 0.0492483 -0.267635
0.407091 0.0493146 -0.283771
0.410939 0.0653845 -0.274706
0.353381 0.130279 -0.326293
0.36286 0.114016 -0.322057
0.386728 0.114467 -0.292677
0.375058 0.114317 -0.307583
0.377557 0.130963 -0.297539
0.371832 0.0977618 -0.317243
0.380294 0.0815425 -0.311866
0.427832 0.113561 -0.229161
0.418426 0.114016 -0.245584
0.419527 0.130279 -0.23526
0.414118 0.0815425 -0.265315
0.416619 0.0977618 -0.255606
0.424217 0.0813236 -0.248997
0.399648 0.130963 -0.267138
0.408428 0.114317 -0.261657
0.397857 0.114467 -0.277362
0.40342 0.0816513 -0.281246
0.392141 0.0816513 -0.29677
0.39535 0.0980212 -0.287242
0.419902 0.0175239 -0.268707
0.428089 0.0491114 -0.251097
0.424311 0.0332674 -0.260052
0.430163 0.0174412 -0.251994
0.439759 0.0172805 -0.234923
0.436627 0.112949 -0.212408
0.435505 0.0969726 -0.222496
0.448964 0.0642551 -0.207585
0.442549 0.0805346 -0.215292
0.450751 0.0799553 -0.197965
0.4337 0.0809906 -0.232312
0.431223 0.0650281 -0.241848
0.4644 0.0162731 -0.181868
0.471191 0.0157997 -0.16364
0.448673 0.0170303 -0.217528
0.45689 0.0166908 -0.199835
0.462285 0.0476136 -0.18159
0.459895 0.0321458 -0.190826
0.454747 0.0481306 -0.199415
0.443454 0.032891 -0.226072
0.437637 0.0488851 -0.234193
0.446527 0.0485582 -0.216957
0.473534 0.0311219 -0.154486
0.464045 0.0630685 -0.172133
0.469128 0.0470301 -0.163495
0.475261 0.046415 -0.145138
0.476357 0.0616566 -0.135601
0.437054 0.128893 -0.202057
0.444796 0.112179 -0.19535
0.459221 0.110245 -0.160398
0.452333 0.11127 -0.178009
0.452118 0.126846 -0.167693
0.451877 0.0956337 -0.188103
0.458294 0.0792645 -0.180351
0.47581 0.106885 -0.105963
0.474372 0.121744 -0.0957868
0.476812 0.0768269 -0.125886
0.476628 0.0919079 -0.116002
0.464618 0.124342 -0.132274
0.470985 0.108002 -0.12438
0.465446 0.109141 -0.142521
0.471344 0.0776602 -0.144309
0.465164 0.0784877 -0.162463
0.465631 0.0938512 -0.152589
0.216521 0.150985 -0.423564
0.227266 0.136464 -0.422798
0.194311 0.179102 -0.423694
0.205503 0.165236 -0.423859
0.237172 0.169011 -0.405044
0.221541 0.167076 -0.414775
0.225626 0.183338 -0.405536
0.160514 0.216729 -0.420907
0.1889 0.223108 -0.40502
0.174564 0.219846 -0.413423
0.171745 0.205048 -0.422133
0.183061 0.192421 -0.423094
0.245913 0.235082 -0.364558
0.231934 0.232396 -0.375512
0.228731 0.199699 -0.395889
0.230835 0.21608 -0.385871
0.243448 0.202094 -0.385534
0.217685 0.229479 -0.385965
0.203289 0.226364 -0.395837
0.213732 0.197216 -0.405656
0.19851 0.194739 -0.414752
0.20151 0.210519 -0.405454
0.243388 0.137926 -0.413108
0.252356 0.170945 -0.394742
0.248297 0.154349 -0.404158
0.259022 0.139433 -0.402826
0.274193 0.140923 -0.391976
0.259562 0.237518 -0.35315
0.259123 0.221017 -0.36407
0.283803 0.191465 -0.362198
0.271737 0.20645 -0.363306
0.285317 0.208316 -0.351483
0.257783 0.204361 -0.374662
0.255526 0.187642 -0.384897
0.317056 0.144783 -0.356241
0.330461 0.145749 -0.343329
0.288918 0.14234 -0.380582
0.303206 0.143638 -0.368664
0.308873 0.177521 -0.348354
0.306438 0.160556 -0.358717
0.29536 0.176141 -0.360686
0.278226 0.157686 -0.382478
0.267106 0.172813 -0.383899
0.281437 0.17456 -0.372541
0.33293 0.162675 -0.33302
0.343403 0.146521 -0.329941
0.310503 0.19445 -0.33761
0.321967 0.178676 -0.335562
0.346839 0.18029 -0.308645
0.334626 0.179599 -0.322321
0.335555 0.196446 -0.311252
0.272882 0.239666 -0.341308
0.298456 0.243057 -0.316349
0.285853 0.241515 -0.329037
0.285996 0.225024 -0.340426
0.298524 0.209925 -0.339214
0.3449 0.246122 -0.261688
0.333908 0.24582 -0.275902
0.33573 0.213146 -0.299827
0.33517 0.229627 -0.288046
0.347281 0.21368 -0.285889
0.322496 0.24521 -0.289763
0.310675 0.24429 -0.303253
0.323745 0.212344 -0.313372
0.311338 0.211269 -0.326506
0.311388 0.227906 -0.315053
0.355867 0.147095 -0.316096
0.35859 0.180748 -0.294555
0.357602 0.163942 -0.305509
0.367844 0.147477 -0.301814
0.379321 0.147667 -0.287118
0.355464 0.246122 -0.247148
0.357249 0.230196 -0.259553
0.380273 0.197438 -0.253753
0.369038 0.213945 -0.256922
0.379216 0.21368 -0.241937
0.358388 0.213945 -0.27158
0.358845 0.197438 -0.283244
0.410597 0.147095 -0.240775
0.419915 0.146521 -0.22464
0.390282 0.147667 -0.272033
0.400713 0.147477 -0.256578
0.400721 0.18029 -0.234487
0.401064 0.163942 -0.245694
0.390951 0.180748 -0.250017
0.380351 0.164361 -0.276342
0.369869 0.180975 -0.280072
0.380661 0.180975 -0.265219
0.419607 0.162675 -0.213727
0.42865 0.145749 -0.208194
0.399716 0.196446 -0.222948
0.409956 0.179599 -0.218646
0.426759 0.177521 -0.186105
0.418638 0.178676 -0.202512
0.417044 0.19445 -0.190976
0.365587 0.24582 -0.232301
0.384421 0.24429 -0.201753
0.375245 0.24521 -0.217165
0.377526 0.229627 -0.229751
0.388904 0.213146 -0.226643
0.416082 0.237518 -0.137721
0.408936 0.239666 -0.154048
0.414867 0.209925 -0.179084
0.41215 0.225024 -0.166794
0.422456 0.208316 -0.162733
0.401275 0.241515 -0.170176
0.393102 0.243057 -0.186084
0.406741 0.211269 -0.1952
0.398083 0.212344 -0.211059
0.395864 0.227906 -0.198785
0.436788 0.144783 -0.191453
0.434311 0.176141 -0.169441
0.435862 0.160556 -0.180589
0.444324 0.143638 -0.17444
0.451244 0.14234 -0.157167
0.422712 0.235082 -0.121213
0.426331 0.221017 -0.13393
0.445025 0.187642 -0.124073
0.435989 0.204361 -0.129382
0.441897 0.202094 -0.112389
0.429502 0.20645 -0.146162
0.432176 0.191465 -0.157981
0.468106 0.137926 -0.103811
0.472338 0.136464 -0.0854835
0.457529 0.140923 -0.13964
0.463159 0.139433 -0.121858
0.458513 0.169011 -0.100391
0.46111 0.154349 -0.111244
0.453408 0.170945 -0.118017
0.449743 0.157686 -0.146411
0.441283 0.17456 -0.152537
0.447656 0.172813 -0.135395
0.469744 0.150985 -0.075027
0.455411 0.183338 -0.0892579
0.462936 0.167076 -0.0825173
0.466618 0.165236 -0.064458
0.463 0.179102 -0.0538654
0.428809 0.232396 -0.104535
0.439281 0.226364 -0.0710115
0.434344 0.229479 -0.0877535
0.438318 0.21608 -0.100288
0.447195 0.199699 -0.0951926
0.449899 0.216729 -0.0225866
0.45895 0.192421 -0.0433523
0.454537 0.205048 -0.0328881
0.447125 0.219846 -0.0382611
0.443564 0.223108 -0.0544903
0.455792 0.194739 -0.0606219
0.451848 0.197216 -0.0779087
0.447877 0.210519 -0.0663484
-0.1413 -0.202086 -0.434866
-0.161537 -0.176175 -0.438709
-0.15117 -0.189429 -0.437072
-0.134613 -0.189429 -0.442451
-0.12719 -0.176175 -0.449867
-0.203952 -0.11956 -0.439614
-0.193472 -0.134057 -0.440219
-0.157848 -0.132925 -0.454615
-0.175855 -0.13331 -0.44782
-0.168278 -0.118325 -0.454847
-0.182837 -0.148407 -0.440263
-0.172145 -0.162493 -0.439757
-0.102242 -0.134057 -0.469855
-0.0934075 -0.11956 -0.475525
-0.119225 -0.162493 -0.45695
-0.110873 -0.148407 -0.463641
-0.131223 -0.118325 -0.466884
-0.120963 -0.13331 -0.465651
-0.139525 -0.132925 -0.460566
-0.13716 -0.161858 -0.452173
-0.154827 -0.161858 -0.446434
-0.147433 -0.147452 -0.453733
-0.224216 -0.0902327 -0.436736
-0.21422 -0.104965 -0.438447
-0.243289 -0.0603737 -0.431659
-0.233913 -0.0753645 -0.434477
-0.198782 -0.0743776 -0.451779
-0.216581 -0.0748095 -0.443461
-0.208473 -0.0594998 -0.449597
-0.277365 0.000473337 -0.414857
-0.269372 -0.0148308 -0.419866
-0.235679 -0.0140723 -0.439641
-0.252747 -0.0144125 -0.430075
-0.244092 0.00127573 -0.4352
-0.261028 -0.0300879 -0.424346
-0.252331 -0.0452755 -0.42828
-0.163514 -0.0135493 -0.471207
-0.182075 -0.013577 -0.464355
-0.172795 0.00190918 -0.468009
-0.199972 -0.0442317 -0.455133
-0.191152 -0.0289422 -0.460058
-0.181688 -0.0440739 -0.462733
-0.209162 0.00175434 -0.452954
-0.200314 -0.0136601 -0.456796
-0.218193 -0.0138216 -0.448553
-0.217862 -0.044479 -0.446846
-0.235324 -0.0448269 -0.437891
-0.226934 -0.0293306 -0.443527
-0.196645 -0.104245 -0.446796
-0.180552 -0.0740652 -0.459409
-0.188815 -0.0891072 -0.453397
-0.178624 -0.103735 -0.454431
-0.160227 -0.103471 -0.461302
-0.144679 -0.0135493 -0.477327
-0.153945 -0.0288387 -0.473797
-0.134115 -0.059047 -0.477109
-0.144127 -0.0439896 -0.47577
-0.124999 -0.0440739 -0.481149
-0.163049 -0.0439896 -0.469622
-0.171939 -0.059047 -0.464821
-0.10354 -0.104245 -0.477041
-0.0844131 -0.104965 -0.480614
-0.141529 -0.103471 -0.467376
-0.122606 -0.103735 -0.472628
-0.104735 -0.0743776 -0.482331
-0.113753 -0.0891072 -0.47778
-0.123968 -0.0740652 -0.477789
-0.151798 -0.0886871 -0.467171
-0.161956 -0.0739 -0.466309
-0.143069 -0.0739 -0.472444
-0.0753195 -0.0902327 -0.485108
-0.095611 -0.0594998 -0.486262
-0.0854468 -0.0748095 -0.486063
-0.0661455 -0.0753645 -0.48898
-0.0569023 -0.0603737 -0.492214
-0.135291 0.00190918 -0.480196
-0.125636 -0.013577 -0.482694
-0.0871313 -0.0138216 -0.491138
-0.10644 -0.0136601 -0.487299
-0.0970239 0.00175434 -0.489393
-0.115768 -0.0289422 -0.484549
-0.10574 -0.0442317 -0.485747
-0.0288682 -0.0148308 -0.498014
-0.019458 0.000473337 -0.498662
-0.0476011 -0.0452755 -0.494799
-0.0382527 -0.0300879 -0.49673
-0.0583326 0.00127573 -0.495561
-0.0483186 -0.0144125 -0.496501
-0.0677476 -0.0140723 -0.494207
-0.0670079 -0.0448269 -0.492577
-0.0863976 -0.044479 -0.489558
-0.0771061 -0.0293306 -0.492207
-0.292281 0.0311219 -0.403309
-0.285006 0.0157997 -0.409338
-0.305661 0.0616566 -0.38969
-0.299172 0.046415 -0.396761
-0.267255 0.0476136 -0.418622
-0.283424 0.0470301 -0.408007
-0.274237 0.0630685 -0.412006
-0.327456 0.121744 -0.356318
-0.322637 0.106885 -0.365395
-0.292774 0.109141 -0.388876
-0.307913 0.108002 -0.377456
-0.298126 0.124342 -0.3801
-0.317399 0.0919079 -0.373996
-0.31174 0.0768269 -0.382099
-0.228398 0.112949 -0.428471
-0.24503 0.112179 -0.419473
-0.234828 0.128893 -0.420348
-0.264758 0.0792645 -0.415273
-0.255014 0.0956337 -0.417772
-0.248306 0.0799553 -0.425089
-0.267205 0.126846 -0.401404
-0.261315 0.11127 -0.409873
-0.277236 0.110245 -0.399676
-0.280825 0.0784877 -0.40484
-0.296492 0.0776602 -0.393788
-0.287006 0.0938512 -0.397127
-0.268801 0.0162731 -0.420094
-0.250684 0.0481306 -0.428614
-0.259894 0.0321458 -0.424692
-0.252168 0.0166908 -0.430217
-0.235123 0.0170303 -0.439702
-0.211438 0.113561 -0.436857
-0.22156 0.0969726 -0.435975
-0.20672 0.0650281 -0.449121
-0.214329 0.0809906 -0.442858
-0.196853 0.0813236 -0.450786
-0.23149 0.0805346 -0.434288
-0.241205 0.0642551 -0.431824
-0.181769 0.0175239 -0.464204
-0.163353 0.017551 -0.470996
-0.217689 0.0172805 -0.448538
-0.199894 0.0174412 -0.456712
-0.180784 0.0492483 -0.462159
-0.190425 0.0332674 -0.459792
-0.198747 0.0491114 -0.454765
-0.225882 0.032891 -0.443547
-0.233726 0.0485582 -0.437976
-0.216405 0.0488851 -0.446697
-0.153779 0.0333607 -0.473287
-0.144685 0.017551 -0.477062
-0.170997 0.0653845 -0.463787
-0.162554 0.0493146 -0.468863
-0.125396 0.0492483 -0.480162
-0.144083 0.0493146 -0.474867
-0.134273 0.0653845 -0.475724
-0.201138 0.130279 -0.43691
-0.194177 0.114016 -0.444618
-0.158856 0.114467 -0.458245
-0.17664 0.114317 -0.451749
-0.166316 0.130963 -0.451022
-0.186823 0.0977618 -0.451666
-0.17909 0.0815425 -0.458056
-0.085739 0.113561 -0.477715
-0.104266 0.114016 -0.473844
-0.0941064 0.130279 -0.471701
-0.124361 0.0815425 -0.475846
-0.114355 0.0977618 -0.475223
-0.105719 0.0813236 -0.480408
-0.130572 0.130963 -0.462642
-0.122644 0.114317 -0.469302
-0.140849 0.114467 -0.464098
-0.142819 0.0816513 -0.470594
-0.161071 0.0816513 -0.464661
-0.151018 0.0980212 -0.464768
-0.125796 0.0175239 -0.482394
-0.106519 0.0491114 -0.484739
-0.116202 0.0332674 -0.483913
-0.106731 0.0174412 -0.486987
-0.0875317 0.0172805 -0.490835
-0.0670876 0.112949 -0.4809
-0.0770283 0.0969726 -0.482951
-0.0586894 0.0642551 -0.49114
-0.0680007 0.0805346 -0.487423
-0.0489874 0.0799553 -0.489865
-0.0869215 0.0809906 -0.484269
-0.0967555 0.0650281 -0.484862
-0.029465 0.0162731 -0.497865
-0.0100324 0.0157997 -0.498689
-0.0682354 0.0170303 -0.493934
-0.0488718 0.0166908 -0.496278
-0.0298518 0.0476136 -0.495769
-0.0393748 0.0321458 -0.496352
-0.0491328 0.0481306 -0.494113
-0.0779722 0.032891 -0.491614
-0.0874935 0.0488851 -0.488594
-0.0683546 0.0485582 -0.49172
-0.000601885 0.0311219 -0.498088
-0.0203137 0.0630685 -0.494521
-0.0105295 0.0470301 -0.496683
0.00882325 0.046415 -0.49684
0.0182323 0.0616566 -0.494934
-0.0571117 0.128893 -0.478107
-0.04834 0.112179 -0.483396
-0.0106404 0.110245 -0.486307
-0.0295187 0.11127 -0.4852
-0.019774 0.126846 -0.481809
-0.0392602 0.0956337 -0.487887
-0.0299053 0.0792645 -0.491592
0.0462549 0.106885 -0.485254
0.0554904 0.121744 -0.480742
0.0276147 0.0768269 -0.492364
0.0369592 0.0919079 -0.489134
0.0177743 0.124342 -0.482744
0.027249 0.108002 -0.486358
0.00828394 0.109141 -0.4867
0.00840397 0.0776602 -0.492859
-0.0107711 0.0784877 -0.492595
-0.00123495 0.0938512 -0.489987
-0.335918 0.150985 -0.336806
-0.331868 0.136464 -0.346789
-0.342907 0.179102 -0.315722
-0.339604 0.165236 -0.326417
-0.311931 0.169011 -0.350724
-0.326012 0.167076 -0.338864
-0.315968 0.183338 -0.339895
-0.350702 0.216729 -0.282716
-0.326827 0.223108 -0.304805
-0.339245 0.219846 -0.293767
-0.348396 0.205048 -0.293776
-0.345813 0.192421 -0.304835
-0.270749 0.235082 -0.346529
-0.285481 0.232396 -0.336618
-0.305839 0.199699 -0.339868
-0.295667 0.21608 -0.338773
-0.291447 0.202094 -0.350665
-0.299821 0.229479 -0.326297
-0.313653 0.226364 -0.315654
-0.319758 0.197216 -0.32862
-0.333109 0.194739 -0.316952
-0.323343 0.210519 -0.316933
-0.317675 0.137926 -0.359128
-0.297446 0.170945 -0.361981
-0.307651 0.154349 -0.36103
-0.30307 0.139433 -0.370818
-0.288067 0.140923 -0.381893
-0.255684 0.237518 -0.355985
-0.266202 0.221017 -0.358941
-0.256793 0.191465 -0.38183
-0.261576 0.20645 -0.3707
-0.246138 0.208316 -0.379961
-0.276684 0.204361 -0.360938
-0.287109 0.187642 -0.361955
-0.240847 0.144783 -0.411614
-0.224426 0.145749 -0.420372
-0.272685 0.14234 -0.392375
-0.25694 0.143638 -0.40228
-0.23588 0.177521 -0.401395
-0.246484 0.160556 -0.40228
-0.251782 0.176141 -0.392354
-0.277794 0.157686 -0.382795
-0.282581 0.172813 -0.372658
-0.267355 0.17456 -0.382777
-0.21386 0.162675 -0.419535
-0.207694 0.146521 -0.428544
-0.225162 0.19445 -0.399626
-0.219668 0.178676 -0.409895
-0.186381 0.18029 -0.425232
-0.203162 0.179599 -0.417843
-0.19235 0.196446 -0.415306
-0.240308 0.239666 -0.364991
-0.208667 0.243057 -0.381599
-0.224631 0.241515 -0.373535
-0.235416 0.225024 -0.37719
-0.23039 0.209925 -0.388728
-0.142319 0.246122 -0.408878
-0.159237 0.24582 -0.402815
-0.181429 0.213146 -0.411942
-0.170398 0.229627 -0.407769
-0.164601 0.21368 -0.418621
-0.17595 0.24521 -0.396246
-0.192435 0.24429 -0.389172
-0.198018 0.212344 -0.404729
-0.214344 0.211269 -0.396988
-0.203437 0.227906 -0.393497
-0.190672 0.147095 -0.436123
-0.169346 0.180748 -0.432056
-0.180069 0.163942 -0.434501
-0.173386 0.147477 -0.443103
-0.155861 0.147667 -0.449479
-0.125221 0.246122 -0.414434
-0.136471 0.230196 -0.419965
-0.123835 0.197438 -0.440074
-0.130322 0.213945 -0.430366
-0.112922 0.21368 -0.435418
-0.147557 0.213945 -0.424764
-0.158511 0.197438 -0.428804
-0.102113 0.147095 -0.46491
-0.0838868 0.146521 -0.468788
-0.138125 0.147667 -0.455245
-0.120201 0.147477 -0.460392
-0.0991868 0.18029 -0.453574
-0.10974 0.163942 -0.457362
-0.11698 0.180748 -0.449078
-0.145294 0.164361 -0.447128
-0.152083 0.180975 -0.43831
-0.13462 0.180975 -0.443987
-0.0736032 0.162675 -0.465122
-0.0655448 0.145749 -0.472011
-0.0885235 0.196446 -0.449052
-0.0812655 0.179599 -0.457462
-0.0451209 0.177521 -0.463388
-0.0632367 0.178676 -0.460735
-0.0527564 0.19445 -0.455654
-0.107971 0.24582 -0.419475
-0.0730913 0.24429 -0.427954
-0.0905869 0.24521 -0.423986
-0.101854 0.229627 -0.430046
-0.0953808 0.213146 -0.439908
-0.00240145 0.237518 -0.438283
-0.0201392 0.239666 -0.436532
-0.042119 0.209925 -0.44991
-0.031269 0.225024 -0.443527
-0.0242207 0.208316 -0.452073
-0.037847 0.241515 -0.434229
-0.0555046 0.243057 -0.431369
-0.0599587 0.211269 -0.447161
-0.0777195 0.212344 -0.443825
-0.0667316 0.227906 -0.437922
-0.0471082 0.144783 -0.474578
-0.0269383 0.176141 -0.46542
-0.0370608 0.160556 -0.470339
-0.0285983 0.143638 -0.476484
-0.0100321 0.14234 -0.477724
