500
0.477569 -0.14827 0.397426 -1.80624
1.12149 -0.348186 0.933288 1
0.471357 -0.346319 -0.188678 -1.92708
1.15043 -0.845252 -0.460502 1
-0.486515 0.118156 -0.0494843 -2.48452
-1.45056 0.352285 -0.147539 1
-0.209883 0.020801 0.701955 -1.33522
-0.429527 0.0425694 1.43656 1
0.149582 0.239505 -0.395026 -2.57212
0.462076 0.73986 -1.22028 1
-0.47363 -0.251761 -0.355217 -1.78329
-1.10431 -0.587 -0.828215 1
-0.0580828 -0.0167582 -0.0626318 -4.56476
-1.00089 -0.288778 -1.07927 1
0.58438 -0.33 0.0151475 -1.64355
1.3058 -0.737387 0.0338471 1
0.174607 -0.316179 0.213225 -2.90285
0.624444 -1.13074 0.762552 1
-0.00766908 0.565021 -0.247967 -1.91457
-0.0186418 1.37344 -0.602752 1
0.0660031 0.666112 -0.246223 -1.43388
0.138813 1.40092 -0.517838 1
-0.394095 -0.26834 0.559672 -1.32389
-0.804033 -0.547469 1.14184 1
-0.0475717 0.0496816 0.00287428 -4.65578
-1.0365 1.08247 0.0626253 1
-0.164221 0.0870905 0.20821 -3.60443
-0.882546 0.468037 1.11895 1
-0.0338604 -0.0372903 -0.00328623 -4.74762
-1.00622 -1.10815 -0.097656 1
-0.265069 0.476657 0.407355 -1.59632
-0.584079 1.05031 0.897606 1
-0.53036 0.0903737 -0.28365 -1.95901
-1.30803 0.222889 -0.699565 1
0.00230177 0.0307978 0.00580364 -4.84288
0.109872 1.4701 0.27703 1
-0.0586603 0.406199 0.405235 -2.11619
-0.152559 1.05641 1.05391 1
-0.174191 0.192625 0.113038 -3.58381
-0.922493 1.02012 0.598635 1
0.340995 -0.606303 -0.108719 -1.4797
0.726489 -1.29173 -0.231625 1
0.512669 -0.264218 -0.422081 -1.42651
1.07598 -0.554538 -0.885859 1
-0.136733 0.170569 0.417096 -2.64544
-0.435536 0.543314 1.32858 1
0.293409 0.669016 -0.112735 -1.30412
0.595412 1.35763 -0.228772 1
-0.195508 0.605921 0.354617 -1.35611
-0.402402 1.24713 0.729888 1
-0.0241941 -0.392669 0.622152 -1.31949
-0.0493018 -0.800164 1.2678 1
-0.226385 0.24484 0.090647 -3.27219
-0.98268 1.06279 0.393475 1
0.0775103 -0.141895 0.185357 -3.77017
0.472688 -0.865332 1.13038 1
-0.0279435 -0.144498 -0.164848 -3.89506
-0.189673 -0.980811 -1.11894 1
0.118541 -0.17536 -0.693877 -1.37278
0.245107 -0.362593 -1.43473 1
-0.442763 -0.417207 -0.00508329 -1.9581
-1.09166 -1.02865 -0.0125332 1
0.219522 0.196994 0.0835269 -3.46725
1.07416 0.963921 0.40871 1
0.132868 -0.0698657 -0.109498 -4.07095
1.07262 -0.564012 -0.883959 1
0.112558 -0.3405 -0.463095 -2.07141
0.288255 -0.872005 -1.18597 1
-0.38329 0.300338 -0.343759 -2.01971
-0.964563 0.755812 -0.865082 1
-0.232336 0.245788 -0.24435 -2.91375
-0.835238 0.883597 -0.878427 1
-0.371412 -0.298169 0.341598 -2.06938
-0.950513 -0.76307 0.874213 1
0.185754 0.554549 0.165459 -1.96106
0.458434 1.36861 0.408348 1
-0.0465316 -0.0417903 0.00231331 -4.68707
-1.11523 -1.00159 0.0554435 1
-0.539089 -0.370192 -0.0483564 -1.72129
-1.23316 -0.846809 -0.110615 1
0.0177657 0.0619292 -0.108569 -4.36877
0.211084 0.735817 -1.28997 1
0.0717334 -0.0424196 0.0559464 -4.49813
1.07198 -0.633918 0.836063 1
0.037693 -0.0337664 0.028057 -4.71068
0.977126 -0.875337 0.72733 1
-0.108649 0.0927037 0.0205738 -4.27851
-1.12942 0.96367 0.213868 1
-0.406164 -0.13059 0.497989 -1.72122
-0.929075 -0.298716 1.13912 1
-0.300001 0.111746 0.169115 -3.1897
-1.24289 0.46296 0.700636 1
0.256199 -0.547379 0.0421212 -1.97082
0.634329 -1.35527 0.104289 1
-0.256698 0.645635 0.10096 -1.48954
-0.548429 1.37938 0.215698 1
0.273479 0.142263 -0.512703 -2.00879
0.685706 0.356703 -1.28552 1
0.337337 0.430608 0.377862 -1.67585
0.761105 0.971544 0.852538 1
0.56113 0.285357 0.472101 -1.06562
1.06967 0.543968 0.899952 1
0.295337 -0.00485175 -0.594694 -1.67995
0.667168 -0.0109601 -1.34342 1
0.129973 -0.141354 0.0500269 -4.00782
0.982485 -1.06851 0.37816 1
0.0908998 -0.190157 0.140843 -3.73253
0.537882 -1.12521 0.833412 1
-0.16307 -0.255784 -0.405564 -2.46771
-0.482974 -0.757569 -1.20118 1
-0.68147 0.372695 0.0263519 -1.11414
-1.31529 0.719329 0.050861 1
-0.0634859 0.0133077 0.0632869 -4.54688
-1.05081 0.220267 1.04751 1
-0.0226211 0.0734084 0.352461 -3.19633
-0.0940628 0.305246 1.4656 1
-0.00108529 0.00230578 -0.000434296 -4.98707
-0.629721 1.33789 -0.251993 1
-0.0762471 0.0484268 0.163868 -4.06443
-0.611237 0.388215 1.31365 1
0.241556 -0.0234703 -0.0248668 -3.78018
1.48519 -0.144305 -0.152892 1
0.0173016 -0.0258964 0.00993802 -4.83654
0.793858 -1.18822 0.455992 1
-0.159097 0.362494 0.321715 -2.44944
-0.467829 1.06592 0.946013 1
-0.208968 -0.431071 0.14913 -2.49137
-0.624747 -1.28876 0.445851 1
0.0995773 -0.0740695 0.103767 -4.19115
0.923321 -0.686803 0.962175 1
0.178797 0.0784813 0.065047 -3.97094
1.30311 0.571986 0.474075 1
0.0476405 -0.605557 -0.351717 -1.49046
0.101809 -1.2941 -0.751631 1
0.0909069 -0.198425 -0.18986 -3.5536
0.471377 -1.02889 -0.984477 1
0.0861329 0.104688 0.187064 -3.84489
0.559251 0.679727 1.21458 1
0.10814 -0.082985 -0.0668043 -4.241
1.06857 -0.820006 -0.660118 1
0.167473 -0.171642 0.113198 -3.67408
0.947305 -0.970888 0.640303 1
-0.410629 -0.0836313 0.604009 -1.32428
-0.837853 -0.170643 1.23243 1
0.288721 0.217001 -0.41297 -2.25686
0.789389 0.593299 -1.1291 1
-0.159502 0.376586 0.608324 -1.33491
-0.326395 0.770621 1.24483 1
0.28727 -0.235307 0.233089 -2.80783
0.982829 -0.80505 0.79746 1
-0.232108 0.463655 0.469049 -1.50408
-0.497956 0.994707 1.00628 1
-0.00117634 0.0482937 -0.213738 -3.90436
-0.00805239 0.330584 -1.4631 1
0.67566 -0.014087 -0.0673435 -1.60423
1.49228 -0.0311129 -0.148737 1
-0.00576607 -0.299508 -0.458089 -2.26329
-0.015802 -0.820805 -1.2554 1
0.204209 -0.323918 0.0925324 -3.03031
0.77757 -1.23339 0.352337 1
0.115946 0.076896 -0.110343 -4.11214
0.979426 0.64956 -0.932093 1
-0.000811799 -0.208517 -0.199169 -3.55823
-0.00422293 -1.08469 -1.03606 1
-0.140686 0.346826 0.328026 -2.51162
-0.424027 1.04534 0.988673 1
0.194812 0.183997 -0.00227045 -3.66011
1.09046 1.02992 -0.0127088 1
-0.0996435 0.149769 0.10267 -3.96438
-0.721619 1.08463 0.74354 1
-0.266792 -0.326982 -0.299977 -2.41117
-0.772913 -0.947288 -0.869052 1
-0.0328158 -0.0509385 -0.0405655 -4.63541
-0.675047 -1.04785 -0.834465 1
-0.0344197 0.205789 0.0395813 -3.93815
-0.243112 1.45353 0.27957 1
0.0651847 0.107491 -0.00516279 -4.37091
0.777132 1.28151 -0.0615508 1
0.157837 0.0517827 0.00729968 -4.16863
1.42388 0.467142 0.0658519 1
0.0529541 -0.0678945 0.303535 -3.42245
0.251754 -0.322784 1.44306 1
-0.339273 -0.230877 0.304356 -2.44538
-0.996058 -0.677822 0.893547 1
0.0815099 -0.0271939 0.0668361 -4.4557
1.12314 -0.37471 0.920948 1
-0.095799 -0.53111 0.304198 -1.90246
-0.231956 -1.28596 0.736547 1
-0.20886 -0.390073 0.370032 -2.11598
-0.543149 -1.0144 0.962281 1
-0.383825 -0.0433299 0.414159 -2.16836
-1.01662 -0.114765 1.09696 1
-0.0465653 -0.00420465 0.0588162 -4.62432
-0.929626 -0.0839412 1.1742 1
-0.455735 -0.133274 -0.22561 -2.37152
-1.30038 -0.380279 -0.643747 1
0.0200908 -0.0239389 -0.0291515 -4.78631
0.705143 -0.840202 -1.02315 1
-0.0436614 0.290015 0.198331 -3.22976
-0.184981 1.22871 0.840272 1
-0.404558 0.095207 0.0835215 -2.8804
-1.43149 0.336881 0.295533 1
0.262233 -0.380976 -0.539983 -1.44511
0.553251 -0.803771 -1.13924 1
-0.0282415 -0.398233 0.132345 -2.89701
-0.100719 -1.42024 0.47199 1
0.257042 0.207916 -0.575667 -1.68077
0.580801 0.469797 -1.30075 1
-0.0805038 -0.0751207 0.0793462 -4.3214
-0.889744 -0.830249 0.87695 1
-0.00994933 -0.149517 0.177982 -3.83669
-0.0641442 -0.963952 1.14747 1
-0.214864 0.569147 -0.234336 -1.74037
-0.494374 1.30953 -0.539177 1
0.181164 -0.527821 -0.276085 -1.88697
0.436465 -1.27164 -0.665152 1
0.0547229 0.146014 -0.0833431 -4.11596
0.464259 1.23876 -0.707066 1
-0.322015 0.119902 -0.41616 -2.30158
-0.895008 0.333256 -1.15668 1
0.194194 0.150988 -0.206155 -3.39525
0.907592 0.705662 -0.963493 1
-0.17098 -0.0612079 -0.249505 -3.45701
-0.831078 -0.297512 -1.21276 1
0.00109073 -0.0114657 0.00183961 -4.94168
0.140275 -1.47457 0.236587 1
-0.274855 -0.270375 -0.446503 -2.05037
-0.698871 -0.687479 -1.13532 1
-0.613489 0.383269 0.13398 -1.32164
-1.25087 0.781467 0.273178 1
0.112671 0.187669 0.119857 -3.7522
0.677219 1.128 0.720411 1
0.190827 -0.646161 0.0431125 -1.62436
0.42398 -1.43564 0.0957874 1
0.203736 0.24544 0.0318467 -3.39716
0.953322 1.14846 0.149017 1
-0.188019 0.29853 0.411781 -2.28875
-0.520107 0.82581 1.13909 1
-0.261775 -0.352257 -0.32913 -2.25711
-0.715782 -0.963192 -0.899954 1
-0.364152 0.138672 0.233495 -2.72868
-1.20244 0.457901 0.77101 1
-0.143242 -0.141925 -0.0559216 -3.95372
-1.02679 -1.01736 -0.40086 1
0.0842453 0.193877 -0.172884 -3.63458
0.462745 1.06493 -0.949622 1
0.0949217 0.214988 0.0869603 -3.74708
0.568204 1.28692 0.520546 1
0.256951 -0.209381 -0.228819 -2.98616
0.956944 -0.779782 -0.852173 1
0.0914557 0.0488348 0.112366 -4.23555
0.897274 0.479119 1.10243 1
-0.106055 0.207192 0.370939 -2.81041
-0.36327 0.709696 1.27058 1
0.315417 0.570862 -0.352272 -1.2937
0.638271 1.15519 -0.712851 1
0.0520978 0.438937 -0.00566432 -2.78973
0.176781 1.48942 -0.0192204 1
0.338217 0.230787 0.24195 -2.62201
1.06671 0.727885 0.763091 1
0.0601777 0.189605 0.166847 -3.70183
0.34767 1.09542 0.963942 1
0.556341 0.132515 0.204771 -1.96271
1.37377 0.327219 0.505641 1
0.284496 0.304626 -0.245031 -2.58248
0.882608 0.945061 -0.760174 1
-0.045655 -0.516555 0.458307 -1.53966
-0.0989535 -1.11959 0.993342 1
0.438017 0.193062 -0.102767 -2.55208
1.34201 0.591508 -0.314859 1
0.0642073 0.0964786 0.0255484 -4.40663
0.811562 1.21946 0.322924 1
0.0636631 -0.376265 0.161862 -2.9274
0.230374 -1.36157 0.58572 1
0.255163 0.011545 -0.297159 -3.04076
0.976767 0.0441944 -1.13753 1
0.00578767 -0.2525 0.1758 -3.46137
0.0282117 -1.2308 0.856931 1
0.11825 -0.041128 -0.305828 -3.34769
0.536749 -0.186684 -1.38818 1
-0.262728 -0.0968307 -0.501161 -2.12961
-0.686478 -0.253008 -1.30948 1
0.0793661 0.33691 0.0890133 -3.21303
0.333103 1.41403 0.373593 1
-0.00202656 0.0443262 -0.0395023 -4.70296
-0.0511687 1.11919 -0.997392 1
0.0759404 0.0524803 -0.14965 -4.12085
0.647844 0.447707 -1.27666 1
0.095891 0.311809 0.175181 -3.14859
0.388451 1.26313 0.709653 1
-0.0809942 0.46218 0.596746 -1.20436
-0.160041 0.913243 1.17914 1
0.337202 0.225609 -0.140623 -2.85303
1.17794 0.788119 -0.491238 1
-0.19734 -0.0157729 0.316052 -3.13533
-0.793731 -0.063441 1.27121 1
0.206284 0.250813 -0.16974 -3.16784
0.844432 1.02671 -0.694838 1
0.103155 0.0980835 0.149006 -3.96966
0.750878 0.713963 1.08464 1
0.150875 0.267309 -0.0969765 -3.39048
0.703045 1.2456 -0.45189 1
0.0632285 0.0566374 0.127079 -4.23589
0.620609 0.555915 1.24732 1
-0.0772701 -0.490477 0.539509 -1.33391
-0.158077 -1.00341 1.10372 1
-0.0531416 0.0195702 0.0671246 -4.56089
-0.907657 0.334258 1.14649 1
-0.16754 -0.398825 0.194141 -2.62923
-0.530018 -1.2617 0.614171 1
0.163397 0.0891612 -0.408266 -2.75651
0.546238 0.298067 -1.36484 1
0.0318575 -0.128884 -0.240913 -3.62463
0.173722 -0.702818 -1.31372 1
-0.461148 0.397992 0.0952744 -1.91726
-1.12193 0.968274 0.231793 1
0.208128 0.232894 -0.175736 -3.20807
0.871106 0.974766 -0.735531 1
-0.02905 0.698449 0.328864 -1.13727
-0.0564044 1.35613 0.638533 1
-0.181923 -0.109319 0.201738 -3.53589
-0.931912 -0.559993 1.03342 1
0.185367 0.114923 -0.011228 -3.90805
1.27318 0.789342 -0.0771192 1
0.322803 -0.272959 0.26429 -2.50722
0.971216 -0.821249 0.795166 1
0.0862406 0.167436 -0.124602 -3.87086
0.572832 1.11215 -0.827639 1
-0.101226 -0.0903346 0.0383589 -4.29504
-1.07694 -0.961068 0.408099 1
-0.00644149 -0.00470085 0.00771129 -4.94453
-0.871021 -0.635651 1.04272 1
-0.34452 -0.385999 -0.0387534 -2.40582
-0.996037 -1.11596 -0.112039 1
0.0399157 -0.0383701 0.0109808 -4.71777
1.06073 -1.01966 0.291806 1
-0.201316 -0.00676214 -0.12015 -3.82729
-1.2875 -0.0432469 -0.768416 1
-0.0797131 0.128444 0.0206078 -4.23716
-0.783717 1.26283 0.20261 1
-0.49599 -0.0726544 0.33462 -1.98647
-1.23441 -0.180821 0.832793 1
-0.0864446 0.299733 -0.279487 -2.90581
-0.309587 1.07344 -1.00094 1
-0.198749 0.107526 0.132777 -3.68954
-1.13747 0.615387 0.759906 1
0.0350956 0.0132247 -0.0142888 -4.79933
1.31168 0.494265 -0.534039 1
0.323223 0.367615 0.240826 -2.27231
0.888728 1.01079 0.662171 1
0.188172 -0.087087 0.117543 -3.80827
1.18423 -0.54807 0.73974 1
0.0295233 -0.0296727 0.0086947 -4.78624
1.03587 -1.04111 0.305066 1
-0.0742662 -0.0638644 -0.0476761 -4.45532
-1.02261 -0.879381 -0.656476 1
0.113136 -0.56105 0.494536 -1.21799
0.224356 -1.1126 0.980701 1
-0.148278 0.142014 -0.0103366 -3.97212
-1.08193 1.03622 -0.0754219 1
0.0940146 -0.357817 0.0913933 -3.09458
0.370055 -1.40842 0.359737 1
0.276879 0.373853 0.0232722 -2.671
0.891623 1.20391 0.0749428 1
0.271262 -0.324908 -0.278866 -2.46566
0.80276 -0.961518 -0.825263 1
0.0163528 -0.207048 0.184846 -3.60982
0.088223 -1.11702 0.997238 1
-0.232289 0.0178615 -0.0781554 -3.77133
-1.41793 0.109029 -0.477072 1
0.162689 0.131246 -0.0512393 -3.92391
1.13389 0.914744 -0.357122 1
0.317892 -0.261446 -0.446637 -1.96317
0.785091 -0.645688 -1.10305 1
-0.286299 0.217278 -0.572653 -1.61951
-0.635187 0.482057 -1.2705 1
0.461905 0.132069 -0.233989 -2.32816
1.29659 0.370726 -0.65682 1
0.0128137 0.166199 -0.119295 -3.97509
0.0937666 1.2162 -0.872969 1
-0.361036 0.0121671 0.329776 -2.55436
-1.10718 0.0373126 1.01132 1
0.0325965 0.337523 0.482084 -2.05301
0.0829573 0.858986 1.22689 1
-0.00593437 -0.00532653 -0.0173453 -4.90455
-0.466281 -0.418521 -1.36287 1
-0.52254 -0.0134571 -0.218671 -2.16695
-1.38333 -0.0356252 -0.578894 1
0.0622691 0.00144117 -0.00632698 -4.68697
1.49192 0.0345294 -0.15159 1
-0.0204566 -0.00108247 0.0280275 -4.82642
-0.883891 -0.0467712 1.21101 1
-0.382359 -0.234741 0.194455 -2.55504
-1.1729 -0.720074 0.596496 1
-0.0754702 0.0855585 0.0681163 -4.33562
-0.851967 0.965851 0.76895 1
-0.000354213 0.00378887 0.00408669 -4.97208
-0.0951487 1.01777 1.09777 1
0.166456 0.50069 0.516073 -1.30971
0.338299 1.01758 1.04885 1
-0.0491215 0.0350088 0.0543355 -4.59408
-0.907593 0.646841 1.00393 1
-0.0369497 -0.0427893 0.0508429 -4.61983
-0.728942 -0.844146 1.00303 1
0.39711 -0.358572 -0.525819 -1.24914
0.794039 -0.716981 -1.0514 1
0.259473 -0.401171 0.478547 -1.61891
0.575568 -0.889885 1.06152 1
-0.217602 0.264296 -0.0597159 -3.26241
-0.93924 1.14079 -0.257753 1
0.0629142 -0.0718955 0.0410468 -4.4801
0.907585 -1.03715 0.592131 1
-0.389536 -0.113496 -0.337729 -2.36049
-1.10684 -0.32249 -0.959635 1
-0.11867 0.117175 0.0253781 -4.15655
-1.05522 1.04192 0.225662 1
0.500575 0.0858992 -0.558062 -1.22711
0.995076 0.170756 -1.10935 1
0.168894 -0.237979 -0.290763 -2.94026
0.614981 -0.866535 -1.05873 1
-0.0417352 -0.119542 -0.0196243 -4.35935
-0.48859 -1.39946 -0.22974 1
-0.18647 -0.0644165 -0.480939 -2.40085
-0.538071 -0.185878 -1.38778 1
-0.416324 -0.0423821 -0.463146 -1.879
-1.00046 -0.101847 -1.11297 1
0.372133 0.240352 0.533899 -1.53121
0.804603 0.519674 1.15436 1
-0.0983519 -0.101836 0.00608899 -4.29147
-1.04108 -1.07796 0.0644536 1
0.345892 -0.315665 -0.0905453 -2.61523
1.08782 -0.992755 -0.284762 1
0.182524 0.264194 0.0519756 -3.37354
0.841664 1.21826 0.239672 1
0.106627 0.0256884 0.139408 -4.1131
0.901681 0.217231 1.17889 1
0.0669788 -0.0291307 -0.0273507 -4.61004
1.28818 -0.56026 -0.526026 1
0.560378 -0.205034 0.449958 -1.26328
1.12474 -0.411524 0.903113 1
0.336721 0.319551 0.206726 -2.45918
0.993936 0.943254 0.610217 1
0.0594407 0.459134 0.00884421 -2.68475
0.192552 1.48731 0.0286499 1
0.14656 -0.401302 0.218292 -2.60117
0.458225 -1.25468 0.682496 1
-0.379731 -0.374533 -0.319881 -1.89036
-0.915855 -0.90332 -0.771507 1
0.350969 0.239882 -0.322112 -2.33317
0.98704 0.674628 -0.905886 1
-0.0261759 -0.0552076 0.0543691 -4.59107
-0.480077 -1.01253 0.997151 1
-0.012296 -0.13965 -0.182575 -3.84905
-0.0801252 -0.910016 -1.18973 1
0.116333 0.329865 -0.205211 -2.97234
0.430298 1.22012 -0.759046 1
0.104288 0.163418 -0.134031 -3.82159
0.663742 1.04008 -0.853044 1
0.0280584 0.0664672 0.17174 -4.06861
0.225939 0.535225 1.38293 1
0.285062 0.211932 0.544832 -1.74801
0.657432 0.488775 1.25654 1
0.244409 -0.421697 0.0808496 -2.52967
0.742033 -1.28029 0.245462 1
0.0370181 0.0385154 -0.030274 -4.69299
0.904311 0.940888 -0.739562 1
0.183687 -0.158198 -0.15517 -3.56086
0.957273 -0.824439 -0.808659 1
-0.0230204 -0.0490215 0.059624 -4.59726
-0.428694 -0.912894 1.11034 1
-0.0343853 0.0728866 0.0212284 -4.5833
-0.618891 1.31186 0.382084 1
0.220158 0.17979 -0.0728784 -3.53281
1.12541 0.919054 -0.372542 1
-0.0213661 -0.0460227 0.0201304 -4.72706
-0.587111 -1.26464 0.553155 1
0.388626 -0.065619 0.368963 -2.3006
1.07976 -0.182316 1.02513 1
-0.0331408 -0.023887 -0.174823 -4.10234
-0.276893 -0.199577 -1.46065 1
-0.0772591 0.0233427 -0.0604953 -4.49568
-1.14896 0.347142 -0.899658 1
0.153259 -0.0121926 -0.00868416 -4.23006
1.4929 -0.118768 -0.0845922 1
0.0957995 -0.0978673 -0.055213 -4.26169
0.973164 -0.99417 -0.560873 1
-0.478153 0.38544 -0.203167 -1.76553
-1.10873 0.893749 -0.471099 1
0.0133313 0.0166122 -0.0287537 -4.82108
0.558831 0.696361 -1.20532 1
0.479269 0.286756 -0.403497 -1.55494
1.04338 0.624277 -0.878425 1
-0.271786 0.458817 0.0335292 -2.32837
-0.762978 1.28802 0.0941255 1
-0.0379399 0.364845 0.435669 -2.15238
-0.0999251 0.960919 1.14745 1
-0.0251608 -0.0814077 0.0897683 -4.38116
-0.304934 -0.986613 1.08794 1
0.254439 -0.258102 -0.223896 -2.86994
0.895888 -0.908787 -0.788347 1
-0.060062 0.197163 0.304931 -3.15973
-0.244782 0.803537 1.24274 1
0.0115264 -0.138452 -0.0648098 -4.23348
0.11278 -1.35468 -0.634129 1
0.304585 -0.0880544 -0.41527 -2.38765
0.874457 -0.252803 -1.19223 1
-0.300295 -0.161111 0.0153456 -3.29435
-1.32044 -0.70843 0.0674771 1
-0.162002 -0.465397 -0.419996 -1.76258
-0.375303 -1.07817 -0.972987 1
0.139659 0.17932 0.00783422 -3.86288
0.921139 1.18272 0.0516715 1
-0.615861 -0.271004 -0.117467 -1.58486
-1.3525 -0.595154 -0.25797 1
0.0573775 0.0896823 -0.0356306 -4.43865
0.766598 1.19821 -0.476046 1
-0.13679 -0.738671 0.187002 -1.12922
-0.265043 -1.43125 0.362333 1
-0.394266 0.372395 -0.343726 -1.78959
-0.921062 0.869968 -0.802994 1
-0.364106 -0.203315 -0.0863611 -2.87063
-1.28244 -0.716112 -0.304179 1
0.0247528 0.0474877 0.0463472 -4.64589
0.524257 1.00577 0.981618 1
-0.449993 -0.419432 0.373405 -1.40192
-0.937985 -0.874281 0.778342 1
-0.143475 -0.0252036 -0.0985623 -4.12059
-1.22361 -0.214947 -0.84058 1
0.19622 0.0865477 -0.300515 -3.15404
0.797228 0.351638 -1.22097 1
-0.427457 -0.188146 0.478199 -1.65787
-0.959247 -0.422215 1.07312 1
0.0792987 -0.372869 0.379705 -2.30976
0.221073 -1.03951 1.05856 1
-0.208931 0.22544 -0.0121048 -3.46196
-1.01882 1.09933 -0.059027 1
-0.0190071 0.0577669 0.0558894 -4.58703
-0.345187 1.0491 1.015 1
0.469122 0.439526 -0.360683 -1.31438
0.954634 0.894408 -0.733968 1
0.492267 -0.471214 0.368531 -1.12642
0.953124 -0.912363 0.713547 1
0.00345395 -0.194417 -0.122376 -3.85124
0.0225501 -1.26931 -0.79897 1
0.0101405 -0.0189354 0.0197755 -4.85402
0.520975 -0.972817 1.01598 1
0.110433 -0.0744253 0.185213 -3.8594
0.726155 -0.489384 1.21787 1
0.053412 0.177496 0.463563 -2.50376
0.160478 0.533292 1.39278 1
0.213311 -0.103906 -0.760687 -1.01583
0.401547 -0.195597 -1.43196 1
-0.048073 0.150076 -0.141361 -3.9415
-0.340622 1.06337 -1.00161 1
0.364164 -0.252769 -0.379828 -2.08119
0.935736 -0.649502 -0.975984 1
-0.155875 -0.64427 0.258855 -1.44196
-0.32857 -1.35806 0.545641 1
-0.355911 0.281586 -0.235636 -2.44321
-1.04401 0.825995 -0.691207 1
-0.422679 0.511126 0.211111 -1.51979
-0.910891 1.1015 0.454952 1
-0.35886 0.0764149 -0.552099 -1.68551
-0.812026 0.172911 -1.24929 1
-0.398798 -0.55725 -0.0681198 -1.55686
-0.868681 -1.21383 -0.148382 1
0.0920681 -0.077923 0.717542 -1.36195
0.189803 -0.160642 1.47925 1
-0.0297555 0.119754 -0.0855571 -4.24923
-0.297248 1.19631 -0.85469 1
-0.250175 -0.138366 0.413009 -2.48848
-0.747084 -0.413195 1.23334 1
-0.227617 0.197828 0.0297891 -3.4848
-1.12667 0.97922 0.147452 1
0.00183688 0.194254 -0.482407 -2.39974
0.00529814 0.560292 -1.39142 1
0.374568 0.607274 0.0630759 -1.41859
0.7844 1.27172 0.13209 1
-0.249913 0.16944 0.216464 -3.14243
-1.00903 0.68412 0.873978 1
0.164884 -0.18497 -0.100008 -3.66394
0.925579 -1.03833 -0.561398 1
0.00628803 -0.0144995 -0.0116942 -4.9017
0.479749 -1.10625 -0.892217 1
-0.237523 -0.0540414 -0.188852 -3.45887
-1.15592 -0.262996 -0.919061 1
0.047953 -0.06392 -0.0840283 -4.42022
0.620312 -0.826859 -1.08698 1
0.195176 0.0243236 0.0189045 -4.01204
1.48166 0.184651 0.143511 1
-0.3834 0.058122 0.55285 -1.62355
-0.851634 0.129104 1.22803 1
-0.275505 -0.0862513 0.249369 -3.0926
-1.0833 -0.339145 0.980532 1
-0.47715 -0.0428058 0.516652 -1.4771
-1.01582 -0.0911304 1.09991 1
0.0789999 -0.131713 -0.160854 -3.88798
0.532814 -0.888338 -1.08488 1
-0.116203 -0.0940204 -0.444784 -2.65385
-0.371469 -0.300558 -1.42186 1
0.325816 0.0128693 0.40892 -2.38496
0.934449 0.0369095 1.17279 1
0.0766621 0.257276 0.15846 -3.44133
0.368883 1.23796 0.762479 1
0.0409506 -0.468118 0.360303 -2.0393
0.103736 -1.18583 0.912714 1
0.0773371 0.00715872 0.0178987 -4.60148
1.45547 0.134725 0.336849 1
0.0319257 -0.0124794 0.00541526 -4.82648
1.37995 -0.539404 0.234067 1
0.191558 0.0118206 0.282874 -3.29082
0.84057 0.0518695 1.24127 1
0.105036 -0.133504 0.075891 -4.06974
0.846826 -1.07635 0.611853 1
0.0618181 -0.313261 0.203126 -3.10782
0.245027 -1.24167 0.805125 1
0.00641912 0.0821619 -0.105398 -4.33104
0.071967 0.921146 -1.18166 1
0.126049 0.194402 0.0259993 -3.83427
0.810972 1.25074 0.167273 1
-0.0368395 -0.0447907 -0.0684636 -4.55137
-0.615872 -0.748798 -1.14455 1
0.320347 0.163354 -0.40624 -2.28736
0.885705 0.451646 -1.12318 1
0.44811 0.293813 0.225803 -2.09262
1.15596 0.75793 0.582491 1
-0.0331134 0.024858 -0.0590299 -4.63948
-0.688869 0.51713 -1.22802 1
0.176704 0.223259 -0.110129 -3.47359
0.868232 1.09698 -0.541118 1
0.183771 -0.179209 0.17743 -3.4398
0.883399 -0.861471 0.85292 1
0.377469 0.419984 0.0499768 -2.16554
0.998785 1.11128 0.132239 1
0.0671387 -0.0636473 -0.0824795 -4.38029
0.812546 -0.770291 -0.998208 1
-0.00966961 -0.0235581 -0.0117158 -4.85984
-0.517439 -1.26064 -0.626936 1
0.266443 -0.0381584 0.384999 -2.65121
0.85079 -0.121845 1.22935 1
-0.349984 -0.0980823 -0.279483 -2.70751
-1.14499 -0.320882 -0.914344 1
-0.643214 -0.0487686 0.250242 -1.54051
-1.39445 -0.105728 0.542512 1
-0.0467882 0.131902 -0.0688151 -4.22021
-0.450007 1.26863 -0.661862 1
-0.0326071 -0.0349388 0.00744522 -4.75816
-1.01124 -1.08355 0.230897 1
-0.539904 -0.462671 0.348027 -1.04183
-1.02302 -0.876676 0.659447 1
-0.216354 0.239108 -0.315882 -2.74299
-0.718942 0.794552 -1.04967 1
0.32803 -0.0964639 0.108288 -3.20671
1.37191 -0.403437 0.452889 1
0.077486 -0.0372147 -0.0921847 -4.36978
0.922133 -0.442878 -1.09706 1
0.442297 -0.269134 0.412682 -1.68954
1.00204 -0.609735 0.93495 1
0.0956478 -0.0319296 0.0579424 -4.41851
1.23365 -0.411824 0.747332 1
-0.101144 0.369602 -0.134448 -2.96953
-0.3736 1.36521 -0.496615 1
-0.0716243 0.0662367 0.0106018 -4.50934
-1.09482 1.01247 0.162055 1
-0.185853 -0.0699969 -0.166684 -3.70361
-1.07522 -0.404954 -0.96432 1
-0.472872 -0.292238 0.46641 -1.37181
-0.977496 -0.604099 0.964139 1
0.338362 -0.024863 -0.290907 -2.76542
1.13566 -0.0834486 -0.976382 1
0.340784 -0.123892 0.245485 -2.81056
1.16737 -0.424396 0.840918 1
0.388801 -0.0858997 -0.202162 -2.76721
1.30599 -0.288539 -0.679067 1
0.102482 -0.130067 0.0612152 -4.11729
0.870742 -1.10512 0.520116 1
-0.025876 -0.0239119 0.0119686 -4.81395
-1.0431 -0.963926 0.482473 1
0.0226875 -0.00984595 -0.0159962 -4.85273
1.1554 -0.501422 -0.814632 1
0.2711 -0.443876 -0.282397 -2.04082
0.6871 -1.125 -0.715731 1
0.0214298 -0.141196 0.0826888 -4.17488
0.194788 -1.28341 0.751608 1
0.166402 -0.349655 0.186087 -2.85188
0.580982 -1.22079 0.649708 1
-0.0265888 -0.00469479 -0.10337 -4.46581
-0.373304 -0.0659145 -1.45131 1
0.559195 -0.0530912 0.250521 -1.92478
1.36379 -0.129482 0.610984 1
0.0228309 -0.0890905 0.41657 -2.86699
0.080277 -0.313256 1.46473 1
-0.0828448 0.296776 0.1087 -3.36633
-0.380332 1.36247 0.499028 1
-0.458827 0.235096 -0.0517193 -2.40931
-1.3283 0.680598 -0.149726 1
-0.373475 0.243442 -0.0894841 -2.72648
-1.23204 0.80308 -0.295195 1
-0.402588 -0.421699 0.248712 -1.83075
-0.952723 -0.997947 0.588575 1
-0.321491 0.027457 -0.118376 -3.28155
-1.40311 0.119833 -0.516637 1
-0.740759 -0.13333 0.0976172 -1.20517
-1.46402 -0.263509 0.192928 1
0.240384 -0.157913 0.140142 -3.40031
1.12702 -0.740357 0.657042 1
0.0213648 0.0294391 0.0616068 -4.64228
0.447938 0.617226 1.29166 1
-0.345918 0.0595094 -0.00990127 -3.2443
-1.4777 0.254213 -0.0422964 1
-0.0854923 0.159082 -0.148427 -3.83117
-0.548577 1.02078 -0.952406 1
0.365364 -0.0380236 0.52861 -1.78144
0.851384 -0.0886038 1.23179 1
0.0218962 0.353835 0.253649 -2.82046
0.0753468 1.21758 0.872829 1
-0.0710457 0.09314 0.103672 -4.21785
-0.681252 0.893113 0.994105 1
-0.0696009 0.0163848 -0.15478 -4.14751
-0.612333 0.14415 -1.36172 1
0.216452 0.267644 0.0836358 -3.22885
0.916572 1.13334 0.354158 1
0.614767 0.413295 0.288082 -1.02589
1.1602 0.779977 0.543672 1
-0.174762 -0.186297 -0.0267783 -3.71581
-1.02066 -1.08803 -0.156393 1
0.561595 0.0226085 0.134425 -2.11049
1.45767 0.0586827 0.348914 1
0.400022 -0.0212208 0.0219171 -2.99408
1.49566 -0.0793433 0.0819464 1
-0.125568 -0.120787 -0.145715 -3.86433
-0.829255 -0.797684 -0.962308 1
-0.213582 -0.227543 -0.00975686 -3.43884
-1.02607 -1.09315 -0.0468732 1
0.0958324 0.20256 0.169335 -3.59564
0.511794 1.08178 0.904337 1
-0.00154327 -0.0300953 0.0311923 -4.78314
-0.0533742 -1.04085 1.07879 1
0.313346 -0.207447 -0.539492 -1.71263
0.714886 -0.473281 -1.23083 1
-0.0982975 -0.0135357 -0.244046 -3.68277
-0.559681 -0.0770687 -1.38954 1
0.551836 0.283127 -0.495544 -1.03059
1.04267 0.534955 -0.936307 1
-0.260357 0.0758872 -0.00594801 -3.64372
-1.43973 0.419642 -0.0328914 1
0.507704 0.100694 0.308091 -1.98826
1.26431 0.250755 0.767225 1
0.0108648 -0.0707395 -0.0634831 -4.52166
0.170353 -1.10915 -0.995373 1
0.113969 0.124296 -0.0147793 -4.15358
1.00987 1.10137 -0.130958 1
0.47184 -0.239895 -0.238606 -2.09692
1.21898 -0.61976 -0.616428 1
0.322803 -0.663913 0.16955 -1.21275
0.639256 -1.31477 0.335765 1
0.448427 0.290809 -0.341762 -1.82802
1.06029 0.687604 -0.808082 1
-0.0855692 -0.27616 0.457627 -2.29349
-0.23712 -0.765264 1.26813 1
0.295797 -0.160683 -0.352404 -2.56328
0.910438 -0.494567 -1.08467 1
0.259552 0.112709 -0.112058 -3.47826
1.27922 0.555497 -0.552286 1
0.373728 0.00827461 2.88255e-05 -3.1309
1.49963 0.033203 0.000115666 1
-0.0760254 0.144278 0.0548301 -4.13974
-0.662808 1.25785 0.478023 1
-0.257306 0.432185 0.428434 -1.69642
-0.584152 0.981174 0.972658 1
-0.0275869 -0.00131805 0.0311203 -4.79196
-0.994523 -0.0475164 1.1219 1
-0.246277 -0.346097 0.264654 -2.49761
-0.738127 -1.0373 0.793206 1
-0.104633 0.110555 -0.16774 -3.86745
-0.692903 0.732118 -1.11081 1
0.400927 -0.178252 0.384077 -2.08439
1.03133 -0.458527 0.987985 1
0.392623 -0.211155 -0.335917 -2.20904
1.05507 -0.567424 -0.90269 1
0.00557552 0.00234712 -0.00718984 -4.95302
0.890067 0.374691 -1.14777 1
0.11695 0.502426 -0.399126 -1.73883
0.26896 1.15547 -0.917904 1
0.023398 -0.026946 0.0114471 -4.81261
0.936473 -1.07848 0.458154 1
0.237555 -0.131039 -0.61047 -1.6598
0.5334 -0.294231 -1.37073 1
-0.0559819 0.666528 -0.0590954 -1.6426
-0.125056 1.48894 -0.132011 1
0.0616361 0.21832 -0.313531 -3.06503
0.238903 0.846216 -1.21525 1
-0.0178534 -0.0206638 -0.0122381 -4.85037
-0.894907 -1.03578 -0.613438 1
-0.0143015 -0.0110327 0.0145733 -4.88396
-0.924325 -0.71306 0.941896 1
0.236426 0.219338 -0.251722 -2.95445
0.866856 0.804203 -0.922939 1
0.274409 -0.26134 -0.194876 -2.86941
0.965965 -0.919959 -0.685994 1
-0.00988064 0.0713574 0.0121241 -4.63474
-0.202884 1.46522 0.24895 1
-0.167446 0.252577 0.603807 -1.62207
-0.371779 0.560796 1.34063 1
0.0774437 -0.0715981 0.11649 -4.21429
0.739238 -0.683439 1.11195 1
-0.129514 0.113313 0.0666477 -4.07729
-1.05272 0.921037 0.541729 1
0.0416156 0.0509055 -0.0300544 -4.63853
0.863459 1.05621 -0.623583 1
-0.048481 -0.0844447 -0.064701 -4.41546
-0.622039 -1.08347 -0.830151 1
0.37955 -0.319777 0.148211 -2.4102
1.09917 -0.926067 0.429216 1
-0.0853418 0.57156 -0.37762 -1.54833
-0.185436 1.24192 -0.820516 1
0.174611 0.100266 0.175447 -3.66467
0.980722 0.563156 0.985413 1
-0.00594711 0.0364729 -0.0308275 -4.75938
-0.185366 1.13683 -0.960865 1
-0.157 0.244659 -0.164448 -3.33004
-0.705108 1.0988 -0.738556 1
0.134388 0.348399 0.118193 -3.04161
0.514662 1.33426 0.452641 1
0.0217863 0.0275165 0.00528616 -4.82254
0.920734 1.1629 0.223404 1
0.494781 0.235128 -0.365056 -1.7085
1.12741 0.535761 -0.831814 1
0.164773 0.159522 -0.0136021 -3.85128
1.0758 1.04152 -0.0888081 1
0.412444 0.186742 -0.434388 -1.86282
0.986022 0.44644 -1.03848 1
-0.109555 -0.481701 -0.464906 -1.60819
-0.24225 -1.06514 -1.028 1
0.147169 -0.0617775 0.123855 -3.98986
1.09269 -0.458681 0.919591 1
-0.444812 -0.436859 0.221517 -1.69178
-1.00842 -0.990393 0.502197 1
-0.625093 -0.28515 -0.287562 -1.27594
-1.2589 -0.574272 -0.57913 1
-0.0485416 0.0724981 0.0868951 -4.38431
-0.591307 0.883131 1.05851 1
0.0592547 -0.20631 0.294412 -3.17823
0.243945 -0.849356 1.21206 1
-0.602804 -0.065573 0.300875 -1.61548
-1.3358 -0.145308 0.666731 1
-0.283095 0.276247 0.0917427 -2.96978
-1.0458 1.02051 0.338914 1
0.680024 0.340046 -0.197682 -1.07208
1.29844 0.649286 -0.377455 1
-0.12834 -0.0666745 -0.0748831 -4.18569
-1.18204 -0.614087 -0.68969 1
-0.0487084 0.27485 -0.318895 -2.88098
-0.172397 0.972798 -1.12869 1
-0.317927 -0.175106 -0.0449843 -3.17132
-1.30392 -0.718164 -0.184495 1
-0.600878 -0.149815 0.260659 -1.64053
-1.34146 -0.334461 0.58192 1
0.205191 0.176756 -0.411649 -2.53626
0.624632 0.538072 -1.25312 1
-0.0750959 -0.0746246 -0.00612655 -4.46977
-1.06222 -1.05555 -0.0866589 1
0.524624 -0.496432 0.170686 -1.28918
1.06033 -1.00335 0.344976 1
0.332118 0.482654 0.398968 -1.45588
0.702821 1.02138 0.844287 1
-0.222898 -0.329398 -0.379939 -2.24982
-0.607862 -0.8983 -1.03613 1
-0.149841 -0.126098 -0.0938704 -3.91413
-1.03494 -0.870946 -0.648353 1
-0.0633738 0.347539 0.446239 -2.15426
-0.167023 0.915946 1.17607 1
-0.525206 -0.218189 0.0698427 -2.13501
-1.37489 -0.571178 0.182835 1
0.572258 0.463846 -0.224579 -1.14945
1.11463 0.903468 -0.43743 1
0.397357 0.304052 -0.418294 -1.73921
0.913943 0.699336 -0.9621 1
0.438282 0.26667 0.275277 -2.08889
1.12916 0.687032 0.709209 1
0.611237 0.403882 0.301234 -1.03934
1.15745 0.764801 0.570423 1
0.500258 0.342873 0.299543 -1.61789
1.10935 0.760339 0.664253 1
0.118113 0.144151 -0.13977 -3.83525
0.760546 0.928208 -0.9 1
0.065862 0.311507 -0.448268 -2.25082
0.179678 0.849818 -1.22292 1
-0.0852829 0.0146165 -0.0261456 -4.54805
-1.41524 0.242556 -0.433879 1
-0.0457772 0.108489 -0.195314 -3.85968
-0.301082 0.713543 -1.2846 1
0.0192618 -0.211567 -0.256906 -3.33318
0.0866698 -0.951962 -1.15597 1
0.323602 0.273445 -0.283277 -2.45178
0.952436 0.804814 -0.83375 1
-0.0034404 0.209935 0.103402 -3.82978
-0.0220497 1.34549 0.662708 1
-0.0211717 -0.107849 -0.200094 -3.85854
-0.13911 -0.708627 -1.31472 1
-0.469988 -0.383625 0.119905 -1.90794
-1.13999 -0.930507 0.290838 1
-0.223429 0.0443039 -0.0222095 -3.8557
-1.46441 0.290378 -0.145566 1
-0.297504 0.295032 -0.0818464 -2.86545
-1.04532 1.03663 -0.287578 1
0.0308156 -0.00783379 0.0986358 -4.48183
0.446026 -0.113386 1.42766 1
0.143993 0.414635 0.0457675 -2.79347
0.489434 1.40935 0.155564 1
0.120361 0.0875631 -0.142922 -3.96825
0.874925 0.636511 -1.03892 1
-0.114655 0.710484 0.113563 -1.3571
-0.236052 1.46274 0.233803 1
-0.186673 0.0928404 -0.149622 -3.71691
-1.09115 0.542677 -0.87458 1
0.0238404 0.014651 -0.0218285 -4.82255
1.00764 0.61924 -0.922606 1
-0.248212 0.0906162 -0.28403 -3.06032
-0.959744 0.350378 -1.09824 1
-0.0021312 0.00596087 -0.0125048 -4.92992
-0.228085 0.637944 -1.33828 1
-0.352273 0.401643 -0.420299 -1.60123
-0.777355 0.886299 -0.927467 1
0.316492 0.238743 -0.121866 -2.92626
1.14464 0.863449 -0.440745 1
-0.24695 0.191693 0.588578 -1.66775
-0.55582 0.43145 1.32473 1
-0.126479 -0.232749 0.327734 -2.893
-0.450211 -0.828482 1.16659 1
-0.501749 0.455486 0.359854 -1.16362
-0.980901 0.890459 0.703502 1
0.015684 0.0325684 -0.0366444 -4.74263
0.457052 0.949086 -1.06787 1
-0.0193593 -0.700281 0.207679 -1.34658
-0.0397422 -1.43759 0.426337 1
-0.151439 0.0235226 0.149451 -3.92969
-1.06118 0.16483 1.04725 1
-0.0212107 -0.094322 -0.0855318 -4.35459
-0.246478 -1.09607 -0.993922 1
0.103381 0.00708743 0.0685233 -4.37884
1.24825 0.0855755 0.827368 1
-0.256793 -0.0287619 0.320408 -2.9419
-0.93579 -0.104812 1.16761 1
0.308062 0.252669 -0.499295 -1.8061
0.723401 0.593325 -1.17246 1
0.106455 0.240615 0.159402 -3.46184
0.519073 1.17323 0.777237 1
0.202779 0.160344 -0.0314014 -3.69793
1.16802 0.923589 -0.180873 1
-0.0740187 0.0910242 -0.047715 -4.36674
-0.876634 1.07804 -0.565109 1
0.148592 -0.743994 -0.166946 -1.11581
0.286918 -1.43658 -0.322357 1
-0.00853148 0.00145953 -0.0124296 -4.92427
-0.844906 0.144543 -1.23095 1
-0.094959 0.0676459 -0.0705905 -4.31853
-1.04508 0.744482 -0.77689 1
-0.0212017 -0.0308831 0.0169223 -4.79447
-0.773685 -1.12698 0.617525 1
0.311829 0.178678 0.276392 -2.73309
1.03167 0.591149 0.914435 1
0.0856558 0.0800369 0.336211 -3.21969
0.360846 0.337174 1.41637 1
-0.153823 -0.116763 0.316425 -3.14649
-0.622427 -0.472468 1.28037 1
-0.152191 -0.733987 0.182092 -1.14301
-0.295938 -1.42725 0.354082 1
-0.155391 -0.219154 0.210863 -3.29239
-0.68249 -0.962545 0.926129 1
0.10645 -0.507077 -0.0635319 -2.38995
0.305885 -1.45709 -0.182559 1
0.0878484 0.0277635 0.0746665 -4.40706
1.11117 0.351175 0.94444 1
0.371258 0.0102128 -0.394576 -2.29063
1.02771 0.0282707 -1.09226 1
-0.310213 -0.525299 -0.298406 -1.60435
-0.685169 -1.16023 -0.659093 1
0.00795942 -0.0154554 -0.0104507 -4.89858
0.5886 -1.14293 -0.772831 1
0.170243 -0.776318 -0.0200883 -1.0249
0.321206 -1.46471 -0.0379015 1
-0.117123 -0.107123 0.125945 -3.9869
-0.867063 -0.793028 0.932366 1
-0.37147 0.427229 0.195714 -2.00493
-0.930202 1.06983 0.490091 1
0.515356 -0.418067 -0.110355 -1.63641
1.14912 -0.932189 -0.246064 1
0.169762 -0.190294 0.337444 -2.88518
0.602042 -0.674857 1.19671 1
0.368078 -0.49394 -0.466493 -1.13647
0.714525 -0.958852 -0.90557 1
-0.454503 -0.0866093 0.546557 -1.4195
-0.952039 -0.181419 1.14486 1
0.0473215 -0.127277 0.136798 -4.03625
0.368261 -0.990484 1.06458 1
-0.150193 -0.0417469 -0.121988 -4.01028
-1.13815 -0.316353 -0.924412 1
0.0345805 -0.541018 0.00124406 -2.28938
0.0956805 -1.49694 0.00344219 1
