-0.690554 0.53995 0.481237 -1.38111 1.0799 0.962474 1
0.465513 -1.48197 1.25978 0.931027 -2.96395 2.51957 4
0.311226 0.909974 0.274018 0.622451 1.81995 0.548035 1
-0.113113 0.983216 1.73796 -0.226225 1.96643 3.47591 4
0.60619 0.21382 0.766038 1.21238 0.427641 1.53208 1
0.0978681 0.102748 1.99496 0.195736 0.205497 3.98992 4
0.410671 0.0346606 0.911124 0.821343 0.0693213 1.82225 1
1.70965 -0.99383 0.299024 3.41929 -1.98766 0.598048 4
-0.0843796 -0.404851 0.910481 -0.168759 -0.809703 1.82096 1
1.4127 1.12407 0.860659 2.82541 2.24814 1.72132 4
-0.0446203 -0.997692 0.0511874 -0.0892406 -1.99538 0.102375 1
-0.606633 1.71273 0.835788 -1.21327 3.42547 1.67158 4
0.716036 -0.513767 0.472585 1.43207 -1.02753 0.94517 1
-1.42341 -1.15971 0.793087 -2.84681 -2.31942 1.58617 4
0.198127 0.980171 0.00337872 0.396254 1.96034 0.00675744 1
0.0431442 -0.0688301 1.99835 0.0862885 -0.13766 3.9967 4
-0.0988335 0.332136 0.938039 -0.197667 0.664272 1.87608 1
-0.827884 -0.127326 1.81615 -1.65577 -0.254651 3.6323 4
-0.0198641 0.00343147 0.999797 -0.0397281 0.00686295 1.99959 1
-0.162327 1.20237 1.58995 -0.324654 2.40475 3.17991 4
0.0104733 -0.0832669 0.996472 0.0209465 -0.166534 1.99294 1
-0.478906 0.388495 1.90256 -0.957812 0.776989 3.80511 4
0.377752 -0.503393 0.777109 0.755504 -1.00679 1.55422 1
1.4376 -0.801815 1.13596 2.87519 -1.60363 2.27193 4
-0.927028 0.305549 0.217393 -1.85406 0.611098 0.434786 1
0.139878 0.083981 1.99333 0.279756 0.167962 3.98667 4
0.426885 0.703809 0.567822 0.853771 1.40762 1.13564 1
-1.09574 1.53044 0.676101 -2.19149 3.06087 1.3522 4
-0.972004 -0.122936 0.200237 -1.94401 -0.245871 0.400475 1
-0.244434 -0.102322 1.98237 -0.488868 -0.204643 3.96474 4
-0.720221 0.134418 0.680598 -1.44044 0.268835 1.3612 1
1.12942 -1.53577 0.604825 2.25884 -3.07154 1.20965 4
0.648361 0.16543 0.743143 1.29672 0.330861 1.48629 1
-0.0491742 0.762581 1.84826 -0.0983484 1.52516 3.69651 4
-0.0194585 -0.0342261 0.999225 -0.038917 -0.0684523 1.99845 1
0.192255 0.0484372 1.99015 0.38451 0.0968743 3.9803 4
-0.177083 0.0808485 0.98087 -0.354167 0.161697 1.96174 1
-0.354459 -1.9205 0.43132 -0.708917 -3.841 0.862639 4
0.0451288 0.625347 0.779041 0.0902575 1.25069 1.55808 1
-0.517822 0.675875 1.80971 -1.03564 1.35175 3.61942 4
0.280351 0.48074 0.830838 0.560703 0.96148 1.66168 1
-0.272841 0.255972 1.9647 -0.545682 0.511944 3.92939 4
-0.415643 0.752273 0.5112 -0.831287 1.50455 1.0224 1
-1.1793 0.934228 1.31775 -2.3586 1.86846 2.63551 4
0.175529 0.417591 0.89152 0.351058 0.835182 1.78304 1
-1.6819 -1.04732 0.272666 -3.3638 -2.09463 0.545332 4
0.299289 -0.367967 0.880355 0.598579 -0.735935 1.76071 1
-0.335219 0.173545 1.96405 -0.670439 0.34709 3.92811 4
-0.124157 0.288067 0.949527 -0.248314 0.576135 1.89905 1
0.927205 -0.58051 1.67431 1.85441 -1.16102 3.34861 4
-0.0117151 -0.0537168 0.998487 -0.0234303 -0.107434 1.99697 1
1.73202 -0.950369 0.311303 3.46404 -1.90074 0.622605 4
-0.656002 0.60784 0.447428 -1.312 1.21568 0.894857 1
-0.780491 0.355637 1.80675 -1.56098 0.711274 3.61351 4
-0.0711565 0.35998 0.930242 -0.142313 0.719961 1.86048 1
-0.552726 1.46392 1.24557 -1.10545 2.92784 2.49113 4
-0.0247725 -0.163769 0.986188 -0.0495449 -0.327538 1.97238 1
0.272856 -1.64028 1.11131 0.545712 -3.28057 2.22263 4
-0.152671 0.0883564 0.984319 -0.305342 0.176713 1.96864 1
-1.43573 0.952112 1.01596 -2.87146 1.90422 2.03191 4
-0.665744 -0.674802 0.318476 -1.33149 -1.3496 0.636953 1
-0.00188266 0.0285628 1.9998 -0.00376532 0.0571256 3.99959 4
0.916712 -0.396669 0.0478857 1.83342 -0.793339 0.0957715 1
-0.813172 0.733526 1.67353 -1.62634 1.46705 3.34705 4
-0.479357 0.519131 0.707616 -0.958714 1.03826 1.41523 1
-0.13403 -1.19758 1.5962 -0.268061 -2.39516 3.19239 4
0.00920716 0.262161 0.96498 0.0184143 0.524322 1.92996 1
0.198691 1.76399 0.921334 0.397381 3.52798 1.84267 4
-0.249061 0.889081 0.384061 -0.498123 1.77816 0.768123 1
0.0538762 1.73922 0.986012 0.107752 3.47844 1.97202 4
-0.925302 0.29998 0.232009 -1.8506 0.599961 0.464018 1
1.95475 0.266475 0.328555 3.9095 0.53295 0.65711 4
-0.0530798 -0.848989 0.525738 -0.10616 -1.69798 1.05148 1
-0.175105 -1.60031 1.18674 -0.350209 -3.20062 2.37347 4
0.462396 -0.0960451 0.881456 0.924792 -0.19209 1.76291 1
0.0518655 -0.846891 1.8111 0.103731 -1.69378 3.6222 4
-0.633438 -0.717607 0.289474 -1.26688 -1.43521 0.578949 1
0.111874 0.0598948 1.99597 0.223748 0.11979 3.99194 4
-0.27432 -0.936636 0.217856 -0.548641 -1.87327 0.435713 1
-0.102514 0.219004 1.98533 -0.205027 0.438008 3.97066 4
0.008004 -0.228166 0.973589 0.016008 -0.456331 1.94718 1
-1.08028 -1.6515 0.324895 -2.16055 -3.303 0.64979 4
0.28304 0.959108 2.01988e-05 0.566079 1.91822 4.03977e-05 1
1.32662 1.33445 0.677738 2.65323 2.6689 1.35548 4
0.942848 0.333153 0.00691459 1.8857 0.666305 0.0138292 1
1.65041 0.806329 0.791182 3.30083 1.61266 1.58236 4
-0.885358 0.464727 0.0130737 -1.77072 0.929454 0.0261474 1
0.246327 0.526666 1.91362 0.492654 1.05333 3.82724 4
0.677383 -0.548368 0.490351 1.35477 -1.09674 0.980702 1
0.816629 -1.74409 0.539695 1.63326 -3.48818 1.07939 4
0.405268 0.138712 0.903613 0.810536 0.277423 1.80723 1
-0.472145 0.145004 1.93805 -0.94429 0.290009 3.87611 4
0.449965 0.325366 0.831666 0.89993 0.650733 1.66333 1
0.00885418 -0.193067 1.99064 0.0177084 -0.386135 3.98128 4
-0.576128 0.0281547 0.816874 -1.15226 0.0563094 1.63375 1
0.344166 -0.333044 1.94181 0.688333 -0.666087 3.88362 4
-0.4842 -0.508595 0.711957 -0.9684 -1.01719 1.42391 1
0.0274384 1.98744 0.222097 0.0548767 3.97488 0.444194 4
0.772429 -0.391273 0.500258 1.54486 -0.782547 1.00052 1
0.898662 -1.60971 0.77539 1.79732 -3.21943 1.55078 4
-0.0387944 -0.997159 0.0645646 -0.0775889 -1.99432 0.129129 1
1.89841 -0.196367 0.597884 3.79683 -0.392735 1.19577 4
-0.500507 0.0086222 0.86569 -1.00101 0.0172444 1.73138 1
-0.83859 1.52512 0.98528 -1.67718 3.05024 1.97056 4
0.831917 0.437101 0.341843 1.66383 0.874202 0.683687 1
0.0111379 0.906272 1.78285 0.0222758 1.81254 3.5657 4
0.0517155 0.392253 0.918403 0.103431 0.784506 1.83681 1
-0.480784 1.07621 1.61574 -0.961569 2.15242 3.23148 4
-0.0596507 -0.50886 0.85878 -0.119301 -1.01772 1.71756 1
1.30447 1.44399 0.461763 2.60895 2.88799 0.923526 4
0.44416 0.620569 0.646233 0.88832 1.24114 1.29247 1
0.0660533 -0.011971 1.99887 0.132107 -0.023942 3.99775 4
0.610765 0.182059 0.770597 1.22153 0.364119 1.54119 1
0.962646 0.830377 1.54395 1.92529 1.66075 3.0879 4
0.0747654 0.0491385 0.99599 0.149531 0.0982771 1.99198 1
-1.87656 0.597793 0.348078 -3.75312 1.19559 0.696156 4
-0.283235 0.402011 0.870727 -0.566469 0.804022 1.74145 1
-0.408484 -0.00829495 1.95782 -0.816969 -0.0165899 3.91565 4
0.381299 0.271509 0.883682 0.762599 0.543019 1.76736 1
0.174976 1.72291 1.00049 0.349951 3.44581 2.00098 4
-0.52077 0.0560027 0.851858 -1.04154 0.112005 1.70372 1
0.0383966 -0.106744 1.99678 0.0767932 -0.213488 3.99356 4
0.254149 0.563405 0.786119 0.508299 1.12681 1.57224 1
0.722402 0.189669 1.85531 1.4448 0.379338 3.71061 4
0.0888722 0.251723 0.96371 0.177744 0.503447 1.92742 1
-0.674271 -0.790879 1.70876 -1.34854 -1.58176 3.41752 4
-0.184506 -0.423607 0.886857 -0.369011 -0.847215 1.77371 1
-0.46882 -0.481709 1.88366 -0.937641 -0.963417 3.76731 4
-0.313466 0.584249 0.748594 -0.626931 1.1685 1.49719 1
0.405523 1.30976 1.45605 0.811047 2.61952 2.9121 4
-0.386313 -0.888984 0.245907 -0.772626 -1.77797 0.491813 1
-0.042233 0.924497 1.773 -0.084466 1.84899 3.546 4
0.0866996 0.0532373 0.994811 0.173399 0.106475 1.98962 1
-0.980853 0.951901 1.46007 -1.96171 1.9038 2.92015 4
0.458968 0.306632 0.833862 0.917935 0.613263 1.66772 1
1.21224 -1.4357 0.685012 2.42448 -2.8714 1.37002 4
-0.198841 -0.13189 0.971116 -0.397682 -0.263781 1.94223 1
-0.2411 0.969883 1.7324 -0.4822 1.93977 3.46479 4
-0.181969 0.739922 0.647613 -0.363939 1.47984 1.29523 1
-0.376977 -0.9478 1.72034 -0.753954 -1.8956 3.44068 4
0.998541 0.0224558 0.0491047 1.99708 0.0449117 0.0982094 1
-0.839199 1.49345 1.03216 -1.6784 2.9869 2.06432 4
0.765028 -0.322548 0.5574 1.53006 -0.645097 1.1148 1
1.73138 -0.967042 0.259161 3.46275 -1.93408 0.518322 4
-0.232556 -0.701833 0.673311 -0.465111 -1.40367 1.34662 1
0.72904 1.7078 0.742923 1.45808 3.41559 1.48585 4
-0.0542226 0.352762 0.934141 -0.108445 0.705524 1.86828 1
1.70196 -0.988252 0.355914 3.40393 -1.9765 0.711827 4
0.261087 0.869001 0.420322 0.522174 1.738 0.840644 1
-1.5222 -0.473972 1.20758 -3.04441 -0.947944 2.41516 4
-0.491686 0.334455 0.803981 -0.983372 0.668909 1.60796 1
1.34888 -1.3663 0.560136 2.69776 -2.7326 1.12027 4
0.00517535 0.0026863 0.999983 0.0103507 0.0053726 1.99997 1
0.261061 -1.72456 0.97865 0.522123 -3.44911 1.9573 4
-0.90982 0.0434857 0.41272 -1.81964 0.0869714 0.825439 1
-0.132682 0.185198 1.98698 -0.265365 0.370395 3.97396 4
0.00322364 -0.012219 0.99992 0.00644728 -0.0244379 1.99984 1
0.678067 1.54499 1.07389 1.35613 3.08998 2.14777 4
0.420825 0.502605 0.755178 0.841651 1.00521 1.51036 1
-0.63586 0.0302999 1.89599 -1.27172 0.0605997 3.79197 4
-0.140693 -0.862061 0.486884 -0.281387 -1.72412 0.973767 1
-0.296966 -1.66844 1.06213 -0.593933 -3.33688 2.12425 4
-0.00335163 -0.00319765 0.999989 -0.00670326 -0.0063953 1.99998 1
1.16039 -1.39475 0.841531 2.32077 -2.7895 1.68306 4
-0.475857 0.217038 0.852323 -0.951714 0.434076 1.70465 1
-1.38069 -1.33119 0.567119 -2.76138 -2.66238 1.13424 4
0.361748 -0.792833 0.490463 0.723497 -1.58567 0.980926 1
0.0125515 -0.021232 1.99985 0.025103 -0.042464 3.9997 4
0.176651 0.27389 0.945399 0.353302 0.547781 1.8908 1
-0.0375213 0.669817 1.88413 -0.0750427 1.33963 3.76826 4
-0.798456 -0.39144 0.45743 -1.59691 -0.78288 0.91486 1
1.13534 1.50636 0.66474 2.27069 3.01272 1.32948 4
0.0989545 -0.403569 0.909582 0.197909 -0.807138 1.81916 1
-0.84933 -0.547639 1.7259 -1.69866 -1.09528 3.4518 4
-0.207428 0.090545 0.974051 -0.414855 0.18109 1.9481 1
-0.0503471 0.516629 1.93147 -0.100694 1.03326 3.86293 4
0.0353629 -0.47699 0.878197 0.0707258 -0.953981 1.75639 1
-0.0434556 -0.0659489 1.99844 -0.0869113 -0.131898 3.99688 4
-0.65714 -0.662657 0.359238 -1.31428 -1.32531 0.718476 1
0.0291235 0.107368 1.9969 0.058247 0.214735 3.99381 4
-0.160857 0.0804394 0.983694 -0.321713 0.160879 1.96739 1
-1.35602 1.06021 1.01841 -2.71204 2.12042 2.03682 4
0.330766 -0.639072 0.694393 0.661532 -1.27814 1.38879 1
-0.849716 -1.00962 1.50288 -1.69943 -2.01925 3.00576 4
-0.525876 0.849228 0.047594 -1.05175 1.69846 0.095188 1
1.24508 1.43164 0.632595 2.49016 2.86328 1.26519 4
-0.276453 -0.00939831 0.960981 -0.552907 -0.0187966 1.92196 1
0.237192 -1.53588 1.25889 0.474384 -3.07176 2.51778 4
-0.453701 -0.398312 0.797184 -0.907403 -0.796624 1.59437 1
-0.330488 -1.794 0.819965 -0.660976 -3.588 1.63993 4
0.938004 -0.310618 0.153835 1.87601 -0.621235 0.30767 1
-0.522313 -1.92872 0.085004 -1.04463 -3.85744 0.170008 4
0.777869 -0.12875 0.615096 1.55574 -0.2575 1.23019 1
1.51492 1.01457 0.821991 3.02984 2.02914 1.64398 4
0.705338 -0.638608 0.3077 1.41068 -1.27722 0.6154 1
0.642811 0.973512 1.62452 1.28562 1.94702 3.24904 4
0.558612 0.607758 0.564432 1.11722 1.21552 1.12886 1
-1.86371 -0.650183 0.322226 -3.72743 -1.30037 0.644451 4
-0.0255281 0.129967 0.99119 -0.0510563 0.259933 1.98238 1
-1.06182 0.400769 1.64679 -2.12364 0.801537 3.29359 4
