-0.379105 0.296427 0.87659 -0.75821 0.592854 1.75318 -1
0.377528 -1.20189 1.55336 0.755056 -2.40377 3.10673 1
0.088676 0.259274 0.961724 0.177352 0.518547 1.92345 -1
0.198623 -1.72657 -0.989701 0.397247 -3.45314 -1.9794 1
-0.722416 -0.254814 -0.642795 -1.44483 -0.509628 -1.28559 -1
-1.37593 -1.44453 -0.141899 -2.75186 -2.88907 -0.283798 1
-0.907897 -0.076624 -0.412131 -1.81579 -0.153248 -0.824262 -1
0.25852 -0.150281 1.97752 0.517039 -0.300562 3.95504 1
-0.185775 -0.891327 0.413551 -0.37155 -1.78265 0.827102 -1
-0.673479 -0.535875 -1.80534 -1.34696 -1.07175 -3.61069 1
0.00228712 0.0511375 -0.998689 0.00457423 0.102275 -1.99738 -1
0.279039 -0.787833 -1.81699 0.558078 -1.57567 -3.63398 1
-0.383971 0.275506 -0.881285 -0.767942 0.551013 -1.76257 -1
0.614852 0.500946 -1.83603 1.2297 1.00189 -3.67206 1
0.000669685 0.00331304 0.999994 0.00133937 0.00662608 1.99999 -1
1.06133 -1.69321 0.0812342 2.12267 -3.38643 0.162468 1
-0.267536 0.899078 0.346529 -0.535073 1.79816 0.693058 -1
-1.79504 -0.276067 0.837617 -3.59009 -0.552133 1.67523 1
0.985204 -0.170197 -0.0201583 1.97041 -0.340394 -0.0403165 -1
0.212717 -1.57566 -1.21328 0.425433 -3.15132 -2.42656 1
0.124352 -0.988683 0.0839229 0.248704 -1.97737 0.167846 -1
1.47753 -1.1986 -0.616667 2.95505 -2.3972 -1.23333 1
-0.466428 0.621566 -0.629365 -0.932857 1.24313 -1.25873 -1
0.992084 -0.553339 1.64608 1.98417 -1.10668 3.29216 1
0.206468 -0.0680531 -0.976084 0.412935 -0.136106 -1.95217 -1
1.70898 1.02605 0.163152 3.41796 2.0521 0.326304 1
-0.294474 -0.485497 -0.823151 -0.588948 -0.970995 -1.6463 -1
-0.393588 0.54973 1.88226 -0.787176 1.09946 3.76451 1
0.198656 0.0251253 -0.979747 0.397312 0.0502506 -1.95949 -1
1.82862 0.76547 -0.264986 3.65723 1.53094 -0.529972 1
0.669045 -0.12487 -0.732657 1.33809 -0.24974 -1.46531 -1
0.358328 -0.487254 1.90635 0.716656 -0.974508 3.81271 1
-0.720074 -0.183726 -0.669132 -1.44015 -0.367452 -1.33826 -1
0.118928 -1.84443 -0.764165 0.237857 -3.68885 -1.52833 1
-0.493857 -0.868651 0.0393708 -0.987714 -1.7373 0.0787416 -1
1.92984 0.486208 0.198263 3.85969 0.972416 0.396525 1
0.892272 -0.407378 -0.194666 1.78454 -0.814755 -0.389332 -1
-0.0782866 -0.424158 1.95294 -0.156573 -0.848315 3.90587 1
-0.0560774 -0.77702 -0.626973 -0.112155 -1.55404 -1.25395 -1
-1.10061 1.43656 0.851437 -2.20123 2.87312 1.70287 1
0.418547 0.717713 0.556513 0.837093 1.43543 1.11303 -1
1.43283 -1.34426 -0.374117 2.86566 -2.68852 -0.748234 1
-0.24722 0.447447 0.859461 -0.494441 0.894893 1.71892 -1
1.03291 -0.818272 -1.5045 2.06583 -1.63654 -3.009 1
-0.345464 -0.821865 -0.452982 -0.690928 -1.64373 -0.905963 -1
-0.231462 -0.14413 1.98133 -0.462924 -0.28826 3.96265 1
0.555496 -0.682972 0.474314 1.11099 -1.36594 0.948628 -1
1.74417 -0.90298 -0.377478 3.48835 -1.80596 -0.754956 1
0.375822 -0.871986 -0.313684 0.751645 -1.74397 -0.627368 -1
1.41911 -0.888494 1.09394 2.83822 -1.77699 2.18788 1
0.212761 0.975556 -0.0549794 0.425521 1.95111 -0.109959 -1
0.272919 -0.149754 1.97562 0.545837 -0.299508 3.95125 1
0.328197 -0.304104 -0.894319 0.656394 -0.608209 -1.78864 -1
-1.64412 0.749159 0.857696 -3.28823 1.49832 1.71539 1
-0.180387 0.912585 0.366945 -0.360775 1.82517 0.733891 -1
-0.439966 1.16527 1.56479 -0.879932 2.33055 3.12958 1
0.147499 0.975095 -0.165632 0.294997 1.95019 -0.331264 -1
-0.182356 1.09625 -1.66282 -0.364712 2.1925 -3.32565 1
-0.851933 0.493047 0.176395 -1.70387 0.986094 0.352791 -1
0.846695 -0.561497 -1.72274 1.69339 -1.12299 -3.44548 1
0.223671 0.226714 -0.94793 0.447342 0.453428 -1.89586 -1
0.131519 -1.99547 -0.0286248 0.263038 -3.99093 -0.0572495 1
0.0439489 -0.0190173 0.998853 0.0878978 -0.0380347 1.99771 -1
-1.24265 1.12094 1.09513 -2.4853 2.24189 2.19026 1
-0.480047 0.51988 0.706597 -0.960094 1.03976 1.41319 -1
0.177536 1.58629 -1.20505 0.355073 3.17259 -2.41011 1
0.0338707 0.964386 0.262323 0.0677414 1.92877 0.524645 -1
-0.103128 -0.915546 -1.77515 -0.206256 -1.83109 -3.55029 1
0.103599 -0.369826 -0.923307 0.207198 -0.739652 -1.84661 -1
-0.0305333 -0.985541 -1.74005 -0.0610665 -1.97108 -3.4801 1
0.220701 -0.0715519 -0.972713 0.441402 -0.143104 -1.94543 -1
-0.325547 -0.0443782 -1.97283 -0.651093 -0.0887564 -3.94566 1
0.0328064 0.524714 -0.850646 0.0656129 1.04943 -1.70129 -1
-0.129086 -1.1797 1.60986 -0.258172 -2.35939 3.21972 1
0.863035 -0.179267 0.472265 1.72607 -0.358534 0.94453 -1
0.110701 -1.80771 0.848477 0.221402 -3.61543 1.69695 1
0.191567 0.217021 -0.957185 0.383133 0.434042 -1.91437 -1
1.75966 0.942078 0.126898 3.51931 1.88416 0.253796 1
0.0612337 0.209075 -0.975981 0.122467 0.41815 -1.95196 -1
0.84166 -1.79809 -0.241809 1.68332 -3.59619 -0.483618 1
0.0341284 -0.972991 0.228306 0.0682569 -1.94598 0.456611 -1
0.177852 0.271895 -1.97343 0.355704 0.54379 -3.94687 1
6.09212e-06 2.06437e-05 1 1.21842e-05 4.12873e-05 2 -1
0.477822 0.480643 1.88167 0.955644 0.961286 3.76333 1
0.00652081 0.00230411 0.999976 0.0130416 0.00460822 1.99995 -1
0.710879 0.347308 1.83685 1.42176 0.694616 3.67371 1
0.011577 -0.00607689 -0.999915 0.0231541 -0.0121538 -1.99983 -1
0.81073 1.7334 0.581424 1.62146 3.46679 1.16285 1
-0.38112 0.308533 -0.871524 -0.76224 0.617066 -1.74305 -1
0.228854 -0.488773 1.92581 0.457708 -0.977546 3.85161 1
-0.854924 -0.292613 -0.428349 -1.70985 -0.585226 -0.856697 -1
-1.85265 0.568988 0.49391 -3.7053 1.13798 0.987819 1
0.673936 0.487318 0.555276 1.34787 0.974636 1.11055 -1
0.0911881 -1.98855 0.19327 0.182376 -3.9771 0.38654 1
0.815901 -0.0398765 -0.576815 1.6318 -0.0797529 -1.15363 -1
1.39543 -1.35034 0.478924 2.79085 -2.70068 0.957848 1
-0.490913 -0.515642 0.702223 -0.981826 -1.03128 1.40445 -1
-0.00306687 -0.222078 -1.98763 -0.00613373 -0.444157 -3.97526 1
0.446269 -0.22606 0.865876 0.892537 -0.452119 1.73175 -1
0.377967 -0.677033 1.84357 0.755933 -1.35407 3.68715 1
