-0.189553 0.148213 -0.438295 -0.379105 0.296426 -0.876591 -0.5
0.377533 -1.20188 -1.55337 0.188766 -0.600942 -0.776683 1
0.0443377 0.129636 -0.480862 0.0886754 0.259273 -0.961725 -0.5
0.19863 -1.72657 0.989701 0.0993152 -0.863284 0.494851 1
-0.361207 -0.127408 0.321397 -0.722415 -0.254816 0.642795 -0.5
-1.37593 -1.44454 0.141899 -0.687963 -0.722269 0.0709496 1
-0.453948 -0.0383132 0.206066 -0.907897 -0.0766264 0.412131 -0.5
0.258518 -0.150279 -1.97752 0.129259 -0.0751394 -0.98876 1
-0.0928857 -0.445664 -0.206776 -0.185771 -0.891327 -0.413551 -0.5
-0.673476 -0.535876 1.80534 -0.336738 -0.267938 0.902672 1
0.0011435 0.0255681 0.499345 0.00228699 0.0511363 0.998689 -0.5
0.279042 -0.78783 1.81699 0.139521 -0.393915 0.908496 1
-0.191985 0.137753 0.440643 -0.383971 0.275505 0.881285 -0.5
0.614851 0.500945 1.83603 0.307425 0.250473 0.918016 1
0.00033471 0.00165587 -0.499997 0.00066942 0.00331174 -0.999994 -0.5
1.06134 -1.69321 -0.0812343 0.530671 -0.846604 -0.0406171 1
-0.133769 0.449539 -0.173265 -0.267538 0.899078 -0.346529 -0.5
-1.79504 -0.276072 -0.837618 -0.897522 -0.138036 -0.418809 1
0.492602 -0.085096 0.0100791 0.985205 -0.170192 0.0201583 -0.5
0.212723 -1.57566 1.21328 0.106361 -0.787829 0.60664 1
0.0621779 -0.494341 -0.0419615 0.124356 -0.988682 -0.083923 -0.5
1.47753 -1.19859 0.616668 0.738766 -0.599296 0.308334 1
-0.233215 0.310782 0.314683 -0.466429 0.621564 0.629366 -0.5
0.992086 -0.553333 -1.64608 0.496043 -0.276667 -0.823041 1
0.103234 -0.0340258 0.488042 0.206467 -0.0680517 0.976084 -0.5
1.70898 1.02605 -0.163152 0.854489 0.513025 -0.0815761 1
-0.147236 -0.242749 0.411576 -0.294472 -0.485498 0.823151 -0.5
-0.393588 0.549728 -1.88226 -0.196794 0.274864 -0.941128 1
0.0993274 0.0125626 0.489874 0.198655 0.0251252 0.979747 -0.5
1.82862 0.765471 0.264986 0.914308 0.382735 0.132493 1
0.334523 -0.0624333 0.366329 0.669046 -0.124867 0.732657 -0.5
0.358329 -0.487251 -1.90635 0.179164 -0.243625 -0.953177 1
-0.360037 -0.091864 0.334566 -0.720073 -0.183728 0.669133 -0.5
0.118936 -1.84443 0.764165 0.0594678 -0.922213 0.382083 1
-0.246927 -0.434327 -0.0196854 -0.493854 -0.868653 -0.0393708 -0.5
1.92984 0.486209 -0.198263 0.964921 0.243104 -0.0991315 1
0.446137 -0.203687 0.0973332 0.892273 -0.407373 0.194666 -0.5
-0.0782846 -0.424156 -1.95294 -0.0391423 -0.212078 -0.976469 1
-0.0280372 -0.38851 0.313487 -0.0560744 -0.77702 0.626974 -0.5
-1.10062 1.43656 -0.851438 -0.550309 0.718278 -0.425719 1
0.209273 0.358856 -0.278257 0.418546 0.717713 -0.556514 -0.5
1.43284 -1.34425 0.374117 0.716419 -0.672125 0.187059 1
-0.12361 0.223723 -0.429731 -0.247221 0.447445 -0.859462 -0.5
1.03292 -0.818266 1.5045 0.516458 -0.409133 0.752251 1
-0.172731 -0.410933 0.226491 -0.345461 -0.821866 0.452982 -0.5
-0.23146 -0.144129 -1.98133 -0.11573 -0.0720647 -0.990663 1
0.277749 -0.341485 -0.237157 0.555499 -0.682969 -0.474315 -0.5
1.74418 -0.902971 0.377478 0.872089 -0.451486 0.188739 1
0.187913 -0.435992 0.156842 0.375826 -0.871985 0.313684 -0.5
1.41912 -0.888487 -1.09394 0.709558 -0.444244 -0.546969 1
0.10638 0.487778 0.0274897 0.21276 0.975557 0.0549795 -0.5
0.272917 -0.149751 -1.97562 0.136459 -0.0748757 -0.987812 1
0.164099 -0.152051 0.44716 0.328198 -0.304102 0.89432 -0.5
-1.64412 0.749155 -0.857697 -0.822059 0.374578 -0.428849 1
-0.0901943 0.456292 -0.183473 -0.180389 0.912585 -0.366946 -0.5
-0.439968 1.16527 -1.56479 -0.219984 0.582637 -0.782395 1
0.0737487 0.487548 0.082816 0.147497 0.975095 0.165632 -0.5
-0.182357 1.09625 1.66282 -0.0911787 0.548125 0.831412 1
-0.425967 0.246523 -0.0881977 -0.851934 0.493045 -0.176395 -0.5
0.846697 -0.561492 1.72274 0.423348 -0.280746 0.86137 1
0.111835 0.113357 0.473965 0.22367 0.226713 0.947931 -0.5
0.131527 -1.99547 0.0286248 0.0657635 -0.997733 0.0143124 1
0.0219739 -0.00950831 -0.499426 0.0439478 -0.0190166 -0.998853 -0.5
-1.24265 1.12094 -1.09513 -0.621326 0.56047 -0.547565 1
-0.240024 0.259939 -0.353299 -0.480048 0.519879 -0.706598 -0.5
0.177534 1.58629 1.20506 0.0887672 0.793146 0.602528 1
0.0169347 0.482193 -0.131161 0.0338695 0.964386 -0.262323 -0.5
-0.103124 -0.915545 1.77515 -0.0515621 -0.457772 0.887573 1
0.0518001 -0.184912 0.461654 0.1036 -0.369824 0.923308 -0.5
-0.0305293 -0.985539 1.74005 -0.0152647 -0.49277 0.870026 1
0.11035 -0.0357752 0.486357 0.2207 -0.0715504 0.972714 -0.5
-0.325544 -0.0443788 1.97283 -0.162772 -0.0221894 0.986414 1
0.0164029 0.262357 0.425323 0.0328057 0.524713 0.850647 -0.5
-0.129081 -1.17969 -1.60986 -0.0645406 -0.589847 -0.804932 1
0.431518 -0.0896313 -0.236133 0.863035 -0.179263 -0.472266 -0.5
0.110708 -1.80771 -0.848478 0.0553542 -0.903857 -0.424239 1
0.0957829 0.10851 0.478593 0.191566 0.21702 0.957186 -0.5
1.75965 0.942079 -0.126898 0.879827 0.471039 -0.0634492 1
0.0306166 0.104537 0.48799 0.0612332 0.209074 0.975981 -0.5
0.841667 -1.79809 0.241809 0.420834 -0.899045 0.120905 1
0.0170662 -0.486495 -0.114153 0.0341323 -0.972991 -0.228306 -0.5
0.17785 0.271893 1.97343 0.0889252 0.135947 0.986717 1
2.85879e-06 9.6873e-06 -0.5 5.71758e-06 1.93746e-05 -1 -0.5
0.47782 0.480642 -1.88167 0.23891 0.240321 -0.940834 1
0.00325978 0.00115184 -0.499988 0.00651957 0.00230367 -0.999976 -0.5
0.710877 0.347307 -1.83685 0.355438 0.173654 -0.918427 1
0.00578795 -0.00303811 0.499957 0.0115759 -0.00607622 0.999915 -0.5
0.810728 1.7334 -0.581424 0.405364 0.866699 -0.290712 1
-0.19056 0.154266 0.435762 -0.38112 0.308532 0.871525 -0.5
0.228855 -0.48877 -1.92581 0.114428 -0.244385 -0.962903 1
-0.427461 -0.146308 0.214175 -0.854923 -0.292616 0.428349 -0.5
-1.85265 0.568983 -0.49391 -0.926325 0.284492 -0.246955 1
0.336968 0.243659 -0.277638 0.673936 0.487318 -0.555276 -0.5
0.0911961 -1.98855 -0.19327 0.045598 -0.994275 -0.0966351 1
0.40795 -0.0199361 0.288408 0.815901 -0.0398721 0.576816 -0.5
1.39543 -1.35033 -0.478924 0.697716 -0.675167 -0.239462 1
-0.245455 -0.257822 -0.351112 -0.490911 -0.515644 -0.702224 -0.5
-0.00306595 -0.222076 1.98763 -0.00153298 -0.111038 0.993815 1
0.223135 -0.113029 -0.432938 0.446269 -0.226057 -0.865876 -0.5
0.377969 -0.67703 -1.84358 0.188984 -0.338515 -0.921788 1
-0.00125499 -0.0322579 -0.498957 -0.00250999 -0.0645158 -0.997914 -0.5
0.594711 -0.0615154 -1.90854 0.297355 -0.0307577 -0.954271 1
-0.432781 0.00745549 -0.250291 -0.865561 0.014911 -0.500581 -0.5
0.474726 -0.863372 1.74047 0.237363 -0.431686 0.870233 1
0.151308 0.0794994 -0.469878 0.302616 0.158999 -0.939757 -0.5
0.0219092 1.78271 -0.90634 0.0109546 0.891357 -0.45317 1
0.0600227 0.455262 -0.197824 0.120045 0.910523 -0.395647 -0.5
-0.65904 1.47522 -1.17872 -0.32952 0.737612 -0.58936 1
0.0499926 0.42647 0.256172 0.0999851 0.85294 0.512345 -0.5
-0.309542 -0.342649 1.94596 -0.154771 -0.171325 0.972982 1
-0.188059 -0.262751 0.38157 -0.376118 -0.525502 0.763141 -0.5
1.96683 -0.356454 -0.0671293 0.983417 -0.178227 -0.0335647 1
-0.369243 -0.110066 0.318661 -0.738487 -0.220131 0.637322 -0.5
1.1691 1.00846 -1.2713 0.584549 0.504231 -0.635652 1
-0.416159 -0.273515 0.0447338 -0.832318 -0.54703 0.0894677 -0.5
-0.331657 0.105652 -1.96948 -0.165828 0.0528259 -0.984739 1
0.250749 -0.355902 0.245884 0.501498 -0.711804 0.491767 -0.5
1.95742 0.0397486 0.408569 0.97871 0.0198743 0.204284 1
-0.359919 -0.256285 0.234044 -0.719837 -0.51257 0.468088 -0.5
0.101088 0.99537 -1.73177 0.0505441 0.497685 -0.865884 1
-0.423487 0.0455411 -0.261886 -0.846975 0.0910822 -0.523773 -0.5
-0.675862 1.87892 0.11344 -0.337931 0.93946 0.0567198 1
0.161624 0.358292 -0.309038 0.323248 0.716585 -0.618075 -0.5
1.79449 0.471148 -0.746886 0.897243 0.235574 -0.373443 1
-0.160417 -0.454368 0.133476 -0.320834 -0.908737 0.266951 -0.5
-1.10861 -1.30033 -1.03929 -0.554304 -0.650165 -0.519647 1
0.177071 0.406539 0.231022 0.354143 0.813079 0.462045 -0.5
-1.31377 -1.34988 -0.672187 -0.656883 -0.674941 -0.336094 1
-0.176959 0.329823 -0.331514 -0.353919 0.659647 -0.663029 -0.5
0.430648 1.39091 -1.3711 0.215324 0.695454 -0.685551 1
-0.0490032 -0.112766 -0.484647 -0.0980064 -0.225532 -0.969294 -0.5
-0.0809099 1.77115 -0.925462 -0.0404549 0.885575 -0.462731 1
0.423873 0.260276 -0.05087 0.847746 0.520553 -0.10174 -0.5
1.04778 -1.01685 1.36682 0.523888 -0.508424 0.683408 1
0.34668 0.231613 -0.275987 0.693359 0.463226 -0.551973 -0.5
-0.44193 0.523392 1.87903 -0.220965 0.261696 0.939516 1
-0.404637 -0.268394 -0.119303 -0.809275 -0.536788 -0.238606 -0.5
-0.417931 1.68123 -0.999401 -0.208966 0.840615 -0.4997 1
-0.0773298 0.314437 -0.380985 -0.15466 0.628875 -0.761969 -0.5
0.635801 1.59854 1.02002 0.3179 0.799269 0.510009 1
0.0245461 0.000552009 -0.499397 0.0490923 0.00110402 -0.998794 -0.5
-0.50563 0.899827 -1.71308 -0.252815 0.449913 -0.856541 1
-0.256808 0.108274 0.415122 -0.513616 0.216549 0.830244 -0.5
0.22626 -0.126375 -1.98314 0.11313 -0.0631876 -0.991569 1
-0.105891 -0.319569 -0.36968 -0.211781 -0.639137 -0.739359 -0.5
-0.29168 -0.683269 1.8569 -0.14584 -0.341635 0.928448 1
0.0709593 -0.461649 0.178453 0.141919 -0.923297 0.356905 -0.5
0.307789 -0.178719 -1.96808 0.153894 -0.0893594 -0.984038 1
0.0604715 0.201273 -0.453688 0.120943 0.402546 -0.907375 -0.5
-1.15298 -0.359006 -1.59429 -0.57649 -0.179503 -0.797144 1
0.332382 -0.226093 0.297328 0.664765 -0.452186 0.594656 -0.5
0.393527 -0.398609 -1.91996 0.196763 -0.199304 -0.95998 1
-0.443772 -0.230343 0.0029155 -0.887544 -0.460685 0.005831 -0.5
-0.146478 0.967626 1.7442 -0.0732391 0.483813 0.872102 1
-0.206124 0.00985192 -0.455429 -0.412249 0.0197038 -0.910858 -0.5
1.15721 -1.61523 0.227822 0.578604 -0.807615 0.113911 1
-0.127537 0.483419 0.00631852 -0.255074 0.966839 0.012637 -0.5
-0.431574 -0.98335 1.68724 -0.215787 -0.491675 0.843618 1
0.242402 0.289508 -0.32776 0.484804 0.579016 -0.655519 -0.5
-1.89384 0.0902447 -0.636582 -0.946919 0.0451224 -0.318291 1
-0.0392123 -0.240263 -0.436733 -0.0784247 -0.480526 -0.873467 -0.5
0.186123 1.04569 1.69466 0.0930616 0.522846 0.847332 1
0.361762 0.345142 0.00231616 0.723524 0.690284 0.00463232 -0.5
-0.538213 0.646916 1.81434 -0.269107 0.323458 0.907169 1
0.387736 -0.176846 0.261508 0.775472 -0.353692 0.523015 -0.5
-0.408265 -0.393629 -1.91791 -0.204132 -0.196814 -0.958955 1
0.101797 -0.223105 -0.435731 0.203594 -0.44621 -0.871462 -0.5
-1.0177 1.72153 0.0246645 -0.50885 0.860767 0.0123323 1
-0.256209 -0.397242 0.162958 -0.512418 -0.794485 0.325917 -0.5
-0.105378 1.88118 -0.670867 -0.0526892 0.940589 -0.335434 1
0.205364 0.100679 0.444623 0.410728 0.201358 0.889246 -0.5
-0.4001 -0.530848 1.8863 -0.20005 -0.265424 0.943149 1
-0.108306 0.441707 0.207762 -0.216612 0.883413 0.415524 -0.5
1.45051 0.935276 1.01058 0.725257 0.467638 0.505289 1
0.446354 -0.194839 0.113164 0.892707 -0.389679 0.226328 -0.5
-0.18734 1.92236 -0.519076 -0.0936699 0.961179 -0.259538 1
0.0324646 -0.437897 -0.23915 0.0649291 -0.875793 -0.478299 -0.5
1.09958 1.66874 0.0789788 0.54979 0.834369 0.0394894 1
-0.126478 -0.12754 -0.466623 -0.252956 -0.255079 -0.933246 -0.5
0.52277 1.92726 -0.111247 0.261385 0.963631 -0.0556237 1
-0.439909 0.219985 -0.089924 -0.879819 0.43997 -0.179848 -0.5
-0.802299 0.62728 -1.72129 -0.40115 0.31364 -0.860645 1
-0.159591 0.308344 0.359798 -0.319181 0.616689 0.719596 -0.5
-0.967728 -1.14985 -1.31961 -0.483864 -0.574923 -0.659803 1
-0.0125285 0.020232 -0.499433 -0.025057 0.0404641 -0.998867 -0.5
0.415129 0.47733 -1.89732 0.207564 0.238665 -0.94866 1
0.480213 0.0163253 0.138307 0.960427 0.0326507 0.276613 -0.5
0.192138 -1.24414 -1.55409 0.0960688 -0.622071 -0.777044 1
0.299538 0.262969 0.301868 0.599076 0.525938 0.603736 -0.5
-0.148553 -0.806396 -1.82419 -0.0742765 -0.403198 -0.912093 1
-0.0730181 0.0241798 0.494048 -0.146036 0.0483595 0.988097 -0.5
-0.0222194 -0.0820487 -1.99819 -0.0111097 -0.0410243 -0.999096 1
-0.30342 0.0502209 0.394226 -0.60684 0.100442 0.788452 -0.5
0.682974 0.457401 -1.82327 0.341487 0.228701 -0.911637 1
-0.114049 0.10326 0.475742 -0.228099 0.206519 0.951483 -0.5
-0.895139 -1.35565 1.16659 -0.447569 -0.677826 0.583295 1
0.190979 0.207781 -0.41274 0.381958 0.415562 -0.82548 -0.5
0.304243 0.106139 1.97387 0.152121 0.0530697 0.986936 1
0.0955199 -0.486303 0.066225 0.19104 -0.972605 0.13245 -0.5
-1.5407 0.581517 -1.13493 -0.770351 0.290758 -0.567467 1
