-0.379105 0.296426 -0.876591 -0.379105 0.296426 -0.876591 0
0.188766 -0.600942 -0.776683 0.188766 -0.600942 -0.776683 0
0.0886754 0.259273 -0.961725 0.0886754 0.259273 -0.961725 0
0.0993152 -0.863284 0.494851 0.0993152 -0.863284 0.494851 0
-0.722415 -0.254816 0.642795 -0.722415 -0.254816 0.642795 0
-0.687963 -0.722269 0.0709496 -0.687963 -0.722269 0.0709496 0
-0.907897 -0.0766264 0.412131 -0.907897 -0.0766264 0.412131 0
0.129259 -0.0751394 -0.98876 0.129259 -0.0751394 -0.98876 0
-0.185771 -0.891327 -0.413551 -0.185771 -0.891327 -0.413551 0
-0.336738 -0.267938 0.902672 -0.336738 -0.267938 0.902672 0
0.00228699 0.0511363 0.998689 0.00228699 0.0511363 0.998689 0
0.139521 -0.393915 0.908496 0.139521 -0.393915 0.908496 0
-0.383971 0.275505 0.881285 -0.383971 0.275505 0.881285 0
0.307425 0.250473 0.918016 0.307425 0.250473 0.918016 0
0.00066942 0.00331174 -0.999994 0.00066942 0.00331174 -0.999994 0
0.530671 -0.846604 -0.0406171 0.530671 -0.846604 -0.0406171 0
-0.267538 0.899078 -0.346529 -0.267538 0.899078 -0.346529 0
-0.897522 -0.138036 -0.418809 -0.897522 -0.138036 -0.418809 0
0.985205 -0.170192 0.0201583 0.985205 -0.170192 0.0201583 0
0.106361 -0.787829 0.60664 0.106361 -0.787829 0.60664 0
0.124356 -0.988682 -0.083923 0.124356 -0.988682 -0.083923 0
0.738766 -0.599296 0.308334 0.738766 -0.599296 0.308334 0
-0.466429 0.621564 0.629366 -0.466429 0.621564 0.629366 0
0.496043 -0.276667 -0.823041 0.496043 -0.276667 -0.823041 0
0.206467 -0.0680517 0.976084 0.206467 -0.0680517 0.976084 0
0.854489 0.513025 -0.0815761 0.854489 0.513025 -0.0815761 0
-0.294472 -0.485498 0.823151 -0.294472 -0.485498 0.823151 0
-0.196794 0.274864 -0.941128 -0.196794 0.274864 -0.941128 0
0.198655 0.0251252 0.979747 0.198655 0.0251252 0.979747 0
0.914308 0.382735 0.132493 0.914308 0.382735 0.132493 0
0.669046 -0.124867 0.732657 0.669046 -0.124867 0.732657 0
0.179164 -0.243625 -0.953177 0.179164 -0.243625 -0.953177 0
-0.720073 -0.183728 0.669133 -0.720073 -0.183728 0.669133 0
0.0594678 -0.922213 0.382083 0.0594678 -0.922213 0.382083 0
-0.493854 -0.868653 -0.0393708 -0.493854 -0.868653 -0.0393708 0
0.964921 0.243104 -0.0991315 0.964921 0.243104 -0.0991315 0
0.892273 -0.407373 0.194666 0.892273 -0.407373 0.194666 0
-0.0391423 -0.212078 -0.976469 -0.0391423 -0.212078 -0.976469 0
-0.0560744 -0.77702 0.626974 -0.0560744 -0.77702 0.626974 0
-0.550309 0.718278 -0.425719 -0.550309 0.718278 -0.425719 0
0.418546 0.717713 -0.556514 0.418546 0.717713 -0.556514 0
0.716419 -0.672125 0.187059 0.716419 -0.672125 0.187059 0
-0.247221 0.447445 -0.859462 -0.247221 0.447445 -0.859462 0
0.516458 -0.409133 0.752251 0.516458 -0.409133 0.752251 0
-0.345461 -0.821866 0.452982 -0.345461 -0.821866 0.452982 0
-0.11573 -0.0720647 -0.990663 -0.11573 -0.0720647 -0.990663 0
0.555499 -0.682969 -0.474315 0.555499 -0.682969 -0.474315 0
0.872089 -0.451486 0.188739 0.872089 -0.451486 0.188739 0
0.375826 -0.871985 0.313684 0.375826 -0.871985 0.313684 0
0.709558 -0.444244 -0.546969 0.709558 -0.444244 -0.546969 0
0.21276 0.975557 0.0549795 0.21276 0.975557 0.0549795 0
0.136459 -0.0748757 -0.987812 0.136459 -0.0748757 -0.987812 0
0.328198 -0.304102 0.89432 0.328198 -0.304102 0.89432 0
-0.822059 0.374578 -0.428849 -0.822059 0.374578 -0.428849 0
-0.180389 0.912585 -0.366946 -0.180389 0.912585 -0.366946 0
-0.219984 0.582637 -0.782395 -0.219984 0.582637 -0.782395 0
0.147497 0.975095 0.165632 0.147497 0.975095 0.165632 0
-0.0911787 0.548125 0.831412 -0.0911787 0.548125 0.831412 0
-0.851934 0.493045 -0.176395 -0.851934 0.493045 -0.176395 0
0.423348 -0.280746 0.86137 0.423348 -0.280746 0.86137 0
0.22367 0.226713 0.947931 0.22367 0.226713 0.947931 0
0.0657635 -0.997733 0.0143124 0.0657635 -0.997733 0.0143124 0
0.0439478 -0.0190166 -0.998853 0.0439478 -0.0190166 -0.998853 0
-0.621326 0.56047 -0.547565 -0.621326 0.56047 -0.547565 0
-0.480048 0.519879 -0.706598 -0.480048 0.519879 -0.706598 0
0.0887672 0.793146 0.602528 0.0887672 0.793146 0.602528 0
0.0338695 0.964386 -0.262323 0.0338695 0.964386 -0.262323 0
-0.0515621 -0.457772 0.887573 -0.0515621 -0.457772 0.887573 0
0.1036 -0.369824 0.923308 0.1036 -0.369824 0.923308 0
-0.0152647 -0.49277 0.870026 -0.0152647 -0.49277 0.870026 0
0.2207 -0.0715504 0.972714 0.2207 -0.0715504 0.972714 0
-0.162772 -0.0221894 0.986414 -0.162772 -0.0221894 0.986414 0
0.0328057 0.524713 0.850647 0.0328057 0.524713 0.850647 0
-0.0645406 -0.589847 -0.804932 -0.0645406 -0.589847 -0.804932 0
0.863035 -0.179263 -0.472266 0.863035 -0.179263 -0.472266 0
0.0553542 -0.903857 -0.424239 0.0553542 -0.903857 -0.424239 0
0.191566 0.21702 0.957186 0.191566 0.21702 0.957186 0
0.879827 0.471039 -0.0634492 0.879827 0.471039 -0.0634492 0
0.0612332 0.209074 0.975981 0.0612332 0.209074 0.975981 0
0.420834 -0.899045 0.120905 0.420834 -0.899045 0.120905 0
0.0341323 -0.972991 -0.228306 0.0341323 -0.972991 -0.228306 0
0.0889252 0.135947 0.986717 0.0889252 0.135947 0.986717 0
5.71758e-06 1.93746e-05 -1 5.71758e-06 1.93746e-05 -1 0
0.23891 0.240321 -0.940834 0.23891 0.240321 -0.940834 0
0.00651957 0.00230367 -0.999976 0.00651957 0.00230367 -0.999976 0
0.355438 0.173654 -0.918427 0.355438 0.173654 -0.918427 0
0.0115759 -0.00607622 0.999915 0.0115759 -0.00607622 0.999915 0
0.405364 0.866699 -0.290712 0.405364 0.866699 -0.290712 0
-0.38112 0.308532 0.871525 -0.38112 0.308532 0.871525 0
0.114428 -0.244385 -0.962903 0.114428 -0.244385 -0.962903 0
-0.854923 -0.292616 0.428349 -0.854923 -0.292616 0.428349 0
-0.926325 0.284492 -0.246955 -0.926325 0.284492 -0.246955 0
0.673936 0.487318 -0.555276 0.673936 0.487318 -0.555276 0
0.045598 -0.994275 -0.0966351 0.045598 -0.994275 -0.0966351 0
0.815901 -0.0398721 0.576816 0.815901 -0.0398721 0.576816 0
0.697716 -0.675167 -0.239462 0.697716 -0.675167 -0.239462 0
-0.490911 -0.515644 -0.702224 -0.490911 -0.515644 -0.702224 0
-0.00153298 -0.111038 0.993815 -0.00153298 -0.111038 0.993815 0
0.446269 -0.226057 -0.865876 0.446269 -0.226057 -0.865876 0
0.188984 -0.338515 -0.921788 0.188984 -0.338515 -0.921788 0
