ply
format ascii 1.0
comment Generated by the CGAL library www.cgal.org
element vertex 917
property double x
property double y
property double z
property uchar red
property uchar green
property uchar blue
property int label
comment label -1 is (unclassified)
comment label 0 is ground
comment label 1 is vegetation
comment label 2 is roof
end_header
596687.0625 243701.4375 91.12109375 0 0 0 -1
596686.9375 243702.125 91.059150695800781 0 0 0 -1
596686.8125 243702.84375 90.613990783691406 0 0 0 -1
596686.6875 243703.53125 90.385917663574219 0 0 0 -1
596686.5 243704.234375 90.1058349609375 0 0 0 -1
596686.375 243704.9375 89.788841247558594 0 0 0 -1
596686.1875 243705.640625 89.425125122070312 0 0 0 -1
596686.0625 243706.34375 88.932243347167969 0 0 0 -1
596685.875 243706.421875 86.444381713867188 0 0 0 -1
596685.9375 243707.046875 88.781196594238281 0 0 0 -1
596685.75 243707.75 88.570610046386719 0 0 0 -1
596685.625 243708.46875 88.091514587402344 0 0 0 -1
596685.5 243709.15625 88.001502990722656 0 0 0 -1
596685.3125 243709.859375 87.620452880859375 0 0 0 -1
596685.1875 243710.578125 87.34429931640625 0 0 0 -1
596684.1875 243711.65625 75.02001953125 0 0 0 -1
596684.0625 243712.359375 75.06890869140625 0 0 0 -1
596683.875 243713.078125 74.655174255371094 0 0 0 -1
596683.6875 243713.8125 74.057624816894531 0 0 0 -1
596683.5625 243714.515625 74.150413513183594 0 0 0 -1
596683.4375 243715.21875 74.15386962890625 0 0 0 -1
596683.375 243715.90625 74.710624694824219 0 0 0 -1
596683.1875 243716.640625 74.177291870117188 0 0 0 -1
596683.0625 243717.34375 74.174522399902344 0 0 0 -1
596682.9375 243718.046875 74.149635314941406 0 0 0 -1
596682.8125 243718.75 74.095413208007812 0 0 0 -1
596682.6875 243719.453125 74.161399841308594 0 0 0 -1
596682.5625 243720.171875 74.025779724121094 0 0 0 -1
596682.4375 243720.875 74.159629821777344 0 0 0 -1
596682.3125 243721.578125 74.151931762695312 0 0 0 -1
596682.1875 243722.28125 74.18701171875 0 0 0 -1
596682.0625 243722.984375 74.197586059570312 0 0 0 -1
596681.9375 243723.6875 74.138916015625 0 0 0 -1
596681.8125 243724.390625 74.050804138183594 0 0 0 -1
596681.6875 243725.09375 74.1744384765625 0 0 0 -1
596681.5625 243725.796875 74.074653625488281 0 0 0 -1
596681.375 243726.5 74.025199890136719 0 0 0 -1
596681.25 243727.203125 74.053276062011719 0 0 0 -1
596681.125 243727.921875 73.877708435058594 0 0 0 -1
596681 243728.625 73.96148681640625 0 0 0 -1
596680.875 243729.328125 73.961227416992188 0 0 0 -1
596680.75 243730.03125 74.018646240234375 0 0 0 -1
596680.625 243730.734375 74.0091552734375 0 0 0 -1
596680.5 243731.453125 73.942985534667969 0 0 0 -1
596680 243731.765625 74.008636474609375 0 0 0 -1
596680.125 243731.046875 73.970298767089844 0 0 0 -1
596680.25 243730.34375 73.989601135253906 0 0 0 -1
596680.375 243729.640625 73.942230224609375 0 0 0 -1
596680.5 243728.953125 73.942771911621094 0 0 0 -1
596680.625 243728.25 73.918624877929688 0 0 0 -1
596680.75 243727.546875 73.964614868164062 0 0 0 -1
596680.875 243726.828125 74.010932922363281 0 0 0 -1
596681 243726.125 74.037895202636719 0 0 0 -1
596681.125 243725.4375 74.07574462890625 0 0 0 -1
596681.25 243724.734375 74.066452026367188 0 0 0 -1
596681.375 243724.046875 74.117897033691406 0 0 0 -1
596681.6875 243723.25 76.7005615234375 0 0 0 -1
596681.5 243723.34375 74.169486999511719 0 0 0 -1
596681.625 243722.65625 74.236251831054688 0 0 0 -1
596681.75 243721.953125 74.123672485351562 0 0 0 -1
596681.875 243721.234375 74.113685607910156 0 0 0 -1
596682 243720.578125 74.146163940429688 0 0 0 -1
596682.125 243719.890625 74.100082397460938 0 0 0 -1
596682.25 243719.15625 74.107513427734375 0 0 0 -1
596682.375 243718.453125 74.151313781738281 0 0 0 -1
596682.5 243717.78125 74.140655517578125 0 0 0 -1
596682.625 243717.15625 74.194099426269531 0 0 0 -1
596682.6875 243716.53125 74.176185607910156 0 0 0 -1
596682.8125 243715.890625 74.205116271972656 0 0 0 -1
596682.9375 243715.15625 74.199935913085938 0 0 0 -1
596683.0625 243714.359375 74.087303161621094 0 0 0 -1
596683.25 243713.578125 74.445144653320312 0 0 0 -1
596683.4375 243712.796875 75.122589111328125 0 0 0 -1
596683.5625 243712.0625 75.118995666503906 0 0 0 -1
596683.6875 243711.328125 75.154090881347656 0 0 0 -1
596684.6875 243710.25 87.344001770019531 0 0 0 -1
596683.75 243710.65625 74.241523742675781 0 0 0 -1
596684.8125 243709.53125 87.387649536132812 0 0 0 -1
596685 243708.796875 87.748252868652344 0 0 0 -1
596685.125 243708.09375 88.102066040039062 0 0 0 -1
596685.25 243707.390625 88.317329406738281 0 0 0 -1
596685.4375 243706.6875 88.552947998046875 0 0 0 -1
596685.5625 243705.96875 89.010475158691406 0 0 0 -1
596685.6875 243705.265625 89.229209899902344 0 0 0 -1
596685.875 243704.5625 89.520820617675781 0 0 0 -1
596686 243703.84375 89.777992248535156 0 0 0 -1
596686.125 243703.140625 90.105361938476562 0 0 0 -1
596686.3125 243702.4375 90.405708312988281 0 0 0 -1
596686.4375 243701.734375 90.694297790527344 0 0 0 -1
596686.5625 243701.03125 90.998138427734375 0 0 0 -1
596686.75 243700.328125 91.137886047363281 0 0 0 -1
596686.8125 243699.640625 90.892021179199219 0 0 0 -1
596686.9375 243698.953125 90.644134521484375 0 0 0 -1
596687.0625 243698.25 90.284431457519531 0 0 0 -1
596687.125 243697.5625 89.952804565429688 0 0 0 -1
596687.25 243696.875 89.825904846191406 0 0 0 -1
596687.375 243696.1875 89.52740478515625 0 0 0 -1
596687.4375 243695.5 89.184593200683594 0 0 0 -1
596687.5625 243694.796875 88.949111938476562 0 0 0 -1
596687.6875 243694.109375 88.734100341796875 0 0 0 -1
596687.8125 243693.421875 88.532051086425781 0 0 0 -1
596687.875 243692.71875 88.215583801269531 0 0 0 -1
596688 243692.03125 87.867462158203125 0 0 0 -1
596688.125 243691.34375 87.713897705078125 0 0 0 -1
596688.1875 243690.65625 87.231895446777344 0 0 0 -1
596688.3125 243689.953125 87.26104736328125 0 0 0 -1
596687.9375 243690.015625 82.101112365722656 0 0 0 -1
596687.5625 243690.109375 75.837570190429688 0 0 0 -1
596687.9375 243689.34375 80.229835510253906 0 0 0 -1
596687.6875 243689.40625 76.178443908691406 0 0 0 -1
596687.75 243688.703125 75.707595825195312 0 0 0 -1
596687.875 243688 75.69805908203125 0 0 0 -1
596688 243687.296875 75.741325378417969 0 0 0 -1
596688.125 243686.59375 75.762504577636719 0 0 0 -1
596688.25 243685.90625 75.714447021484375 0 0 0 -1
596688.375 243685.203125 75.7615966796875 0 0 0 -1
596688.5 243684.5 75.796585083007812 0 0 0 -1
596688.6875 243683.796875 75.807075500488281 0 0 0 -1
596689.1875 243683.046875 81.464622497558594 0 0 0 -1
596688.8125 243683.09375 75.840469360351562 0 0 0 -1
596689.25 243682.359375 80.863014221191406 0 0 0 -1
596688.9375 243682.390625 75.844451904296875 0 0 0 -1
596689.375 243681.671875 80.655601501464844 0 0 0 -1
596689.0625 243681.6875 75.853775024414062 0 0 0 -1
596689.5 243680.96875 80.491127014160156 0 0 0 -1
596689.1875 243681 75.850982666015625 0 0 0 -1
596689.3125 243680.296875 75.883773803710938 0 0 0 -1
596689.4375 243679.609375 75.899261474609375 0 0 0 -1
596689.5625 243678.890625 75.867958068847656 0 0 0 -1
596690.0625 243678.171875 82.104476928710938 0 0 0 -1
596689.6875 243678.1875 75.879341125488281 0 0 0 -1
596689.8125 243677.484375 75.851333618164062 0 0 0 -1
596690.3125 243676.78125 81.889671325683594 0 0 0 -1
596689.9375 243676.796875 75.848701477050781 0 0 0 -1
596690.0625 243676.09375 75.854026794433594 0 0 0 -1
596690.1875 243675.40625 75.844902038574219 0 0 0 -1
596690.3125 243674.703125 75.865921020507812 0 0 0 -1
596690.4375 243674 75.852653503417969 0 0 0 -1
596691.3125 243673.3125 87.179092407226562 0 0 0 -1
596690.5625 243673.296875 75.961746215820312 0 0 0 -1
596691.4375 243672.625 87.4405517578125 0 0 0 -1
596691.5625 243671.921875 88.101470947265625 0 0 0 -1
596691.75 243671.234375 88.289260864257812 0 0 0 -1
596691.875 243670.546875 88.761642456054688 0 0 0 -1
596692.0625 243669.84375 89.363883972167969 0 0 0 -1
596692.1875 243669.15625 89.80712890625 0 0 0 -1
596692.375 243668.46875 90.255828857421875 0 0 0 -1
596692.5 243667.765625 90.408340454101562 0 0 0 -1
596692.625 243667.078125 90.795562744140625 0 0 0 -1
596692.8125 243666.40625 91.215713500976562 0 0 0 -1
596692.875 243665.71875 90.803840637207031 0 0 0 -1
596693 243665.015625 90.569221496582031 0 0 0 -1
596693.0625 243664.3125 90.020988464355469 0 0 0 -1
596693.1875 243663.609375 89.413383483886719 0 0 0 -1
596693.25 243662.921875 89.15008544921875 0 0 0 -1
596693.375 243662.21875 88.660514831542969 0 0 0 -1
596693.4375 243661.53125 88.400611877441406 0 0 0 -1
596693.5625 243660.828125 87.936859130859375 0 0 0 -1
596693.625 243660.125 87.251472473144531 0 0 0 -1
596693.75 243659.4375 87.324531555175781 0 0 0 -1
596693.0625 243659.28125 75.911994934082031 0 0 0 -1
596693.1875 243658.578125 75.880615234375 0 0 0 -1
596693.3125 243657.890625 75.941871643066406 0 0 0 -1
596693.4375 243657.1875 75.913902282714844 0 0 0 -1
596693.5625 243656.484375 75.908660888671875 0 0 0 -1
596693.6875 243655.78125 75.936370849609375 0 0 0 -1
596693.8125 243655.078125 75.929550170898438 0 0 0 -1
596693.9375 243654.375 75.98797607421875 0 0 0 -1
596694.0625 243653.671875 75.954597473144531 0 0 0 -1
596694.1875 243652.96875 75.944198608398438 245 180 0 0
596694.3125 243652.265625 75.993927001953125 0 0 0 -1
596694.4375 243651.5625 75.984275817871094 0 0 0 -1
596694.625 243650.875 76.907112121582031 0 0 0 -1
596694.75 243650.1875 77.09527587890625 0 0 0 -1
596694.875 243649.46875 76.780479431152344 0 0 0 -1
596694.9375 243648.75 75.942680358886719 0 0 0 -1
596695.125 243648.078125 77.251075744628906 0 0 0 -1
596695.875 243647.59375 87.237579345703125 0 0 0 -1
596695.25 243647.359375 77.06207275390625 0 0 0 -1
596696 243646.90625 87.335609436035156 0 0 0 -1
596696.125 243646.21875 87.740486145019531 0 0 0 -1
596696.3125 243645.53125 87.983917236328125 0 0 0 -1
596696.4375 243644.84375 88.292495727539062 0 0 0 -1
596696.5625 243644.15625 88.6090087890625 0 0 0 -1
596696.75 243643.46875 88.911048889160156 0 0 0 -1
596696.875 243642.78125 89.146080017089844 0 0 0 -1
596697 243642.09375 89.438919067382812 0 0 0 -1
596697.125 243641.390625 89.684944152832031 0 0 0 -1
596697.3125 243640.71875 90.0782470703125 0 0 0 -1
596697.4375 243640.03125 90.302558898925781 0 0 0 -1
596697.5625 243639.34375 90.634468078613281 0 0 0 -1
596697.6875 243638.65625 90.887039184570312 0 0 0 -1
596697.875 243637.96875 91.209922790527344 0 0 0 -1
596697.9375 243637.265625 90.87030029296875 0 0 0 -1
596698.0625 243636.5625 90.743026733398438 0 0 0 -1
596698.1875 243635.84375 90.414176940917969 0 0 0 -1
596698.3125 243635.140625 90.08087158203125 0 0 0 -1
596698.375 243634.453125 89.892425537109375 0 0 0 -1
596698.5 243633.75 89.632186889648438 0 0 0 -1
596698.625 243633.046875 89.509635925292969 0 0 0 -1
596698.75 243632.328125 89.167938232421875 0 0 0 -1
596698.8125 243631.625 88.988677978515625 0 0 0 -1
596698.9375 243630.921875 88.613235473632812 0 0 0 -1
596699.0625 243630.21875 88.352653503417969 0 0 0 -1
596699.1875 243629.515625 88.090103149414062 0 0 0 -1
596699.25 243628.796875 87.8828125 0 0 0 -1
596699.375 243628.078125 87.456695556640625 0 0 0 -1
596699.5 243627.375 87.118011474609375 0 0 0 -1
596698.9375 243626.234375 76.0726318359375 0 0 0 -1
596699.0625 243625.53125 76.068946838378906 0 0 0 -1
596699.1875 243624.828125 76.033210754394531 0 0 0 -1
596699.3125 243624.125 76.075370788574219 0 0 0 -1
596699.4375 243623.421875 76.09307861328125 0 0 0 -1
596699.5625 243622.703125 76.081489562988281 0 0 0 -1
596699.6875 243622 76.077545166015625 0 0 0 -1
596700.1875 243621.5625 81.922752380371094 0 0 0 -1
596699.8125 243621.3125 76.183647155761719 0 0 0 -1
596700.3125 243620.890625 82.529899597167969 0 0 0 -1
596699.9375 243620.59375 76.208030700683594 0 0 0 -1
596699.375 243620.46875 76.179328918457031 0 0 0 -1
596699.25 243621.171875 76.192276000976562 0 0 0 -1
596699.125 243621.875 76.13836669921875 0 0 0 -1
596699 243622.5625 76.132415771484375 0 0 0 -1
596698.875 243623.265625 76.069679260253906 0 0 0 -1
596698.75 243623.96875 76.041954040527344 0 0 0 -1
596698.625 243624.671875 76.084709167480469 0 0 0 -1
596698.5 243625.375 76.112831115722656 0 0 0 -1
596698.375 243626.078125 76.0665283203125 0 0 0 -1
596698.875 243627.21875 87.119277954101562 0 0 0 -1
596698.8125 243627.953125 87.928756713867188 0 0 0 -1
596698.6875 243628.671875 88.245094299316406 0 0 0 -1
596698.5625 243629.375 88.3302001953125 0 0 0 -1
596698.4375 243630.078125 88.595230102539062 0 0 0 -1
596698.375 243630.78125 88.995399475097656 0 0 0 -1
596698.25 243631.484375 89.1566162109375 0 0 0 -1
596698.125 243632.1875 89.460319519042969 0 0 0 -1
596698 243632.875 89.178482055664062 0 0 0 -1
596697.9375 243633.609375 90.083877563476562 0 0 0 -1
596697.8125 243634.3125 90.231925964355469 0 0 0 -1
596697.6875 243635.015625 90.49249267578125 0 0 0 -1
596697.5625 243635.703125 90.264625549316406 0 0 0 -1
596697.5 243636.421875 91.149467468261719 0 0 0 -1
596697.375 243637.125 91.336532592773438 0 0 0 -1
596697.1875 243637.8125 90.985916137695312 0 0 0 -1
596697.0625 243638.484375 90.568328857421875 0 0 0 -1
596696.9375 243639.171875 90.315711975097656 0 0 0 -1
596696.75 243639.859375 90.03363037109375 0 0 0 -1
596696.625 243640.546875 89.704513549804688 0 0 0 -1
596696.5 243641.21875 89.313743591308594 0 0 0 -1
596696.3125 243641.921875 89.189796447753906 0 0 0 -1
596696.1875 243642.609375 88.976615905761719 0 0 0 -1
596696.0625 243643.296875 88.566947937011719 0 0 0 -1
596695.9375 243643.984375 88.3870849609375 0 0 0 -1
596695.75 243644.671875 88.078048706054688 0 0 0 -1
596695.625 243645.359375 87.746871948242188 0 0 0 -1
596695.5 243646.046875 87.3687744140625 0 0 0 -1
596695.3125 243646.75 87.270248413085938 0 0 0 -1
596694.6875 243646.5 77.015037536621094 0 0 0 -1
596694.5625 243647.21875 77.300758361816406 0 0 0 -1
596694.4375 243647.921875 77.165618896484375 0 0 0 -1
596694.25 243648.59375 76.116455078125 0 0 0 -1
596694.125 243649.296875 76.1517333984375 0 0 0 -1
596694 243650 76.508743286132812 0 0 0 -1
596693.875 243650.703125 76.001640319824219 0 0 0 -1
596693.75 243651.40625 75.973396301269531 0 0 0 -1
596693.625 243652.109375 75.960433959960938 245 180 0 0
596693.5 243652.8125 75.948051452636719 245 180 0 0
596693.375 243653.515625 75.973381042480469 245 180 0 0
596693.25 243654.21875 75.984275817871094 245 180 0 0
596693.125 243654.921875 75.935768127441406 0 0 0 -1
596693 243655.625 75.952522277832031 0 0 0 -1
596692.875 243656.328125 75.934860229492188 0 0 0 -1
596692.6875 243657.03125 75.939918518066406 0 0 0 -1
596692.5625 243657.734375 75.91046142578125 0 0 0 -1
596692.4375 243658.4375 75.953781127929688 0 0 0 -1
596692.3125 243659.140625 75.952713012695312 0 0 0 -1
596692.9375 243659.96875 87.170204162597656 0 0 0 -1
596692.1875 243659.84375 76.0269775390625 0 0 0 -1
596692.8125 243660.671875 87.396804809570312 0 0 0 -1
596692.75 243661.375 87.980255126953125 0 0 0 -1
596692.625 243662.078125 88.0677490234375 0 0 0 -1
596692.5 243662.765625 88.278091430664062 0 0 0 -1
596692.4375 243663.484375 88.975013732910156 0 0 0 -1
596692.3125 243664.171875 89.41058349609375 0 0 0 -1
596692.1875 243664.875 89.577507019042969 0 0 0 -1
596692.125 243665.578125 90.614944458007812 0 0 0 -1
596692 243666.265625 90.592689514160156 0 0 0 -1
596691.9375 243666.96875 91.227287292480469 0 0 0 -1
596691.75 243667.65625 90.745315551757812 0 0 0 -1
596691.625 243668.34375 90.261222839355469 0 0 0 -1
596691.4375 243669.046875 89.89984130859375 0 0 0 -1
596691.3125 243669.734375 89.533905029296875 0 0 0 -1
596691.1875 243670.421875 89.16571044921875 0 0 0 -1
596691 243671.125 88.775779724121094 0 0 0 -1
596690.875 243671.8125 88.27142333984375 0 0 0 -1
596690.8125 243672.515625 89.641693115234375 0 0 0 -1
596690.5625 243673.203125 87.3013916015625 0 0 0 -1
596689.625 243673.890625 75.892745971679688 0 0 0 -1
596689.5 243674.59375 75.888618469238281 0 0 0 -1
596689.375 243675.296875 75.857612609863281 0 0 0 -1
596689.25 243676 75.81951904296875 0 0 0 -1
596689.125 243676.703125 75.876594543457031 0 0 0 -1
596689 243677.40625 75.901718139648438 0 0 0 -1
596688.875 243678.109375 75.837516784667969 0 0 0 -1
596688.75 243678.8125 75.873405456542969 0 0 0 -1
596688.625 243679.53125 75.897476196289062 0 0 0 -1
596688.5 243680.234375 75.874404907226562 0 0 0 -1
596688.375 243680.9375 75.884368896484375 0 0 0 -1
596688.625 243681.609375 81.302169799804688 0 0 0 -1
596688.25 243681.640625 75.839744567871094 0 0 0 -1
596688.4375 243682.3125 80.986312866210938 0 0 0 -1
596688.125 243682.34375 75.815513610839844 0 0 0 -1
596688 243683.046875 75.796745300292969 0 0 0 -1
596687.875 243683.75 75.810684204101562 0 0 0 -1
596687.75 243684.453125 75.767684936523438 0 0 0 -1
596687.625 243685.15625 75.797554016113281 0 0 0 -1
596687.5 243685.859375 75.745643615722656 0 0 0 -1
596687.3125 243686.5625 75.694221496582031 0 0 0 -1
596687.1875 243687.265625 75.673103332519531 0 0 0 -1
596687.125 243687.96875 75.83160400390625 0 0 0 -1
596687.75 243688.53125 86.808929443359375 0 0 0 -1
596687.625 243689.21875 87.255058288574219 0 0 0 -1
596687.5 243689.90625 87.61676025390625 0 0 0 -1
596687.4375 243690.609375 88.165702819824219 0 0 0 -1
596687.3125 243691.296875 88.333770751953125 0 0 0 -1
596687.1875 243692 88.495010375976562 0 0 0 -1
596687.0625 243692.703125 88.317062377929688 0 0 0 -1
596686.9375 243693.390625 88.47149658203125 0 0 0 -1
596686.875 243694.078125 89.279579162597656 0 0 0 -1
596686.75 243694.765625 89.47967529296875 0 0 0 -1
596686.6875 243695.453125 89.792327880859375 0 0 0 -1
596686.5625 243696.15625 89.910896301269531 0 0 0 -1
596686.4375 243696.84375 90.343940734863281 0 0 0 -1
596686.3125 243697.53125 90.650199890136719 0 0 0 -1
596686.25 243698.21875 90.732803344726562 0 0 0 -1
596686.125 243698.90625 91.212020874023438 0 0 0 -1
596686 243699.609375 91.078826904296875 0 0 0 -1
596685.875 243700.296875 90.841232299804688 0 0 0 -1
596685.6875 243701 90.566848754882812 0 0 0 -1
596685.5625 243701.703125 90.113471984863281 0 0 0 -1
596685.375 243702.40625 89.862213134765625 0 0 0 -1
596685.25 243703.109375 89.661155700683594 0 0 0 -1
596685.125 243703.8125 89.279129028320312 0 0 0 -1
596684.9375 243704.515625 89.006767272949219 0 0 0 -1
596684.8125 243705.203125 88.69012451171875 0 0 0 -1
596684.6875 243705.90625 88.478614807128906 0 0 0 -1
596684.5 243706.640625 87.674400329589844 0 0 0 -1
596684.3125 243707.34375 87.307014465332031 0 0 0 -1
596684.1875 243708.046875 87.31878662109375 0 0 0 -1
596684.0625 243708.75 87.248619079589844 0 0 0 -1
596683.125 243709.140625 73.851287841796875 0 0 0 -1
596683 243709.828125 74.17767333984375 0 0 0 -1
596682.9375 243710.515625 75.012382507324219 0 0 0 -1
596682.8125 243711.203125 75.247215270996094 0 0 0 -1
596682.6875 243711.921875 75.067161560058594 0 0 0 -1
596682.5625 243712.625 75.079071044921875 0 0 0 -1
596682.4375 243713.34375 74.917190551757812 0 0 0 -1
596682.25 243714.078125 74.098495483398438 0 0 0 -1
596682.125 243714.78125 74.131362915039062 0 0 0 -1
596682 243715.46875 74.112274169921875 0 0 0 -1
596681.875 243716.171875 74.183280944824219 0 0 0 -1
596681.75 243716.875 74.217453002929688 0 0 0 -1
596681.625 243717.578125 74.162483215332031 0 0 0 -1
596681.5 243718.28125 74.182777404785156 0 0 0 -1
596681.375 243719 74.148918151855469 0 0 0 -1
596681.1875 243719.703125 74.075279235839844 0 0 0 -1
596681.0625 243720.40625 74.052207946777344 0 0 0 -1
596680.9375 243721.109375 74.089485168457031 0 0 0 -1
596680.8125 243721.828125 74.044754028320312 0 0 0 -1
596680.6875 243722.53125 74.124916076660156 0 0 0 -1
596680.5625 243723.234375 74.160659790039062 0 0 0 -1
596680.4375 243723.9375 74.122184753417969 0 0 0 -1
596680.3125 243724.640625 74.079002380371094 0 0 0 -1
596680.1875 243725.34375 74.068557739257812 0 0 0 -1
596680.0625 243726.046875 74.09100341796875 0 0 0 -1
596679.9375 243726.75 74.031829833984375 0 0 0 -1
596679.8125 243727.46875 73.9384765625 0 0 0 -1
596679.6875 243728.171875 73.914688110351562 0 0 0 -1
596679.5625 243728.875 73.96630859375 0 0 0 -1
596679.4375 243729.578125 73.983299255371094 0 0 0 -1
596679.3125 243730.28125 74.000869750976562 0 0 0 -1
596679.1875 243730.984375 74.004219055175781 0 0 0 -1
596679.0625 243731.6875 74.027717590332031 0 0 0 -1
596678.5625 243731.875 73.96490478515625 0 0 0 -1
596678.6875 243731.171875 74.025642395019531 0 0 0 -1
596678.875 243730.453125 74.019737243652344 0 0 0 -1
596678.9375 243729.75 73.962226867675781 0 0 0 -1
596679.0625 243729.046875 73.96453857421875 0 0 0 -1
596679.1875 243728.34375 73.945198059082031 0 0 0 -1
596679.3125 243727.640625 73.921287536621094 0 0 0 -1
596679.5 243726.9375 73.972740173339844 0 0 0 -1
596680.375 243725.765625 84.343307495117188 0 0 0 -1
596679.625 243726.21875 74.133712768554688 0 0 0 -1
596680.5 243725.078125 84.129440307617188 0 0 0 -1
596679.75 243725.515625 74.023849487304688 0 0 0 -1
596679.875 243724.8125 73.999069213867188 0 0 0 -1
596680 243724.109375 74.071708679199219 0 0 0 -1
596680.125 243723.40625 74.070228576660156 0 0 0 -1
596680.25 243722.703125 74.096946716308594 0 0 0 -1
596680.375 243722 74.081619262695312 0 0 0 -1
596680.5 243721.296875 74.074119567871094 0 0 0 -1
596680.625 243720.59375 74.089393615722656 0 0 0 -1
596680.75 243719.890625 74.057571411132812 0 0 0 -1
596680.875 243719.171875 74.103424072265625 0 0 0 -1
596681 243718.46875 74.14739990234375 0 0 0 -1
596681.125 243717.765625 74.196609497070312 0 0 0 -1
596681.25 243717.0625 74.168998718261719 0 0 0 -1
596681.375 243716.34375 74.196830749511719 0 0 0 -1
596681.5 243715.640625 74.167800903320312 0 0 0 -1
596681.625 243714.953125 74.116859436035156 0 0 0 -1
596681.75 243714.25 74.108810424804688 0 0 0 -1
596681.875 243713.546875 74.193145751953125 0 0 0 -1
596682.0625 243712.8125 74.969871520996094 0 0 0 -1
596682.1875 243712.09375 74.980064392089844 0 0 0 -1
596682.3125 243711.390625 75.142677307128906 0 0 0 -1
596682.4375 243710.671875 75.186271667480469 0 0 0 -1
596682.5625 243709.984375 74.934165954589844 0 0 0 -1
596682.625 243709.296875 74.239173889160156 0 0 0 -1
596683.6875 243708.21875 87.270606994628906 0 0 0 -1
596682.75 243708.59375 74.326507568359375 0 0 0 -1
596683.8125 243707.515625 87.301307678222656 0 0 0 -1
596684 243706.8125 87.711158752441406 0 0 0 -1
596684.125 243706.109375 88.081451416015625 0 0 0 -1
596684.25 243705.40625 88.282981872558594 0 0 0 -1
596684.4375 243704.703125 88.614456176757812 0 0 0 -1
596684.5625 243704 88.836738586425781 0 0 0 -1
596684.5 243703.359375 86.362022399902344 0 0 0 -1
596684.875 243702.59375 89.534072875976562 0 0 0 -1
596684.625 243702.671875 86.37847900390625 0 0 0 -1
596685 243701.890625 89.752639770507812 0 0 0 -1
596685.125 243701.1875 90.024124145507812 0 0 0 -1
596685.3125 243700.484375 90.373138427734375 0 0 0 -1
596685.4375 243699.78125 90.528152465820312 0 0 0 -1
596685.5625 243699.078125 90.922828674316406 0 0 0 -1
596685.6875 243698.390625 91.156036376953125 0 0 0 -1
596685.8125 243697.703125 90.943923950195312 0 0 0 -1
596685.9375 243697 90.659675598144531 0 0 0 -1
596686 243696.3125 90.361076354980469 0 0 0 -1
596686.125 243695.625 90.072891235351562 0 0 0 -1
596686.25 243694.9375 89.887245178222656 0 0 0 -1
596686.375 243694.25 89.572486877441406 0 0 0 -1
596686.4375 243693.546875 89.417427062988281 0 0 0 -1
596686.5625 243692.859375 89.076148986816406 0 0 0 -1
596686.6875 243692.171875 88.737724304199219 0 0 0 -1
596686.8125 243691.484375 88.701133728027344 0 0 0 -1
596686.875 243690.796875 88.301292419433594 0 0 0 -1
596687 243690.109375 87.91180419921875 0 0 0 -1
596687.0625 243689.40625 87.794219970703125 0 0 0 -1
596687.1875 243688.71875 87.410530090332031 0 0 0 -1
596687.3125 243688.03125 87.293838500976562 0 0 0 -1
596686.9375 243688.09375 81.869316101074219 0 0 0 -1
596687 243687.40625 81.392318725585938 0 0 0 -1
596686.625 243687.46875 75.8955078125 0 0 0 -1
596686.75 243686.765625 75.734596252441406 0 0 0 -1
596686.875 243686.0625 75.681442260742188 0 0 0 -1
596687 243685.359375 75.733184814453125 0 0 0 -1
596687.125 243684.640625 75.79278564453125 0 0 0 -1
596687.25 243683.9375 75.783111572265625 0 0 0 -1
596687.375 243683.234375 75.823722839355469 0 0 0 -1
596687.5 243682.53125 75.810012817382812 0 0 0 -1
596687.625 243681.828125 75.834083557128906 0 0 0 -1
596687.75 243681.125 75.826225280761719 0 0 0 -1
596687.875 243680.4375 75.838691711425781 0 0 0 -1
596688 243679.734375 75.879066467285156 0 0 0 -1
596688.125 243679.03125 75.872489929199219 0 0 0 -1
596688.25 243678.328125 75.85382080078125 0 0 0 -1
596688.375 243677.625 75.850608825683594 0 0 0 -1
596688.5 243676.921875 75.862747192382812 0 0 0 -1
596688.625 243676.21875 75.822914123535156 0 0 0 -1
596688.75 243675.515625 75.843437194824219 0 0 0 -1
596688.875 243674.8125 75.819404602050781 0 0 0 -1
596689.8125 243674.109375 87.294883728027344 0 0 0 -1
596689.0625 243674.109375 76.040229797363281 0 0 0 -1
596689.9375 243673.421875 87.401321411132812 0 0 0 -1
596690.1875 243672.71875 89.536918640136719 0 0 0 -1
596690.3125 243672.03125 89.856391906738281 0 0 0 -1
596690.4375 243671.328125 89.400863647460938 0 0 0 -1
596690.5 243670.640625 89.1104736328125 0 0 0 -1
596690.6875 243669.953125 89.520645141601562 0 0 0 -1
596690.8125 243669.265625 89.956375122070312 0 0 0 -1
596691 243668.5625 90.496864318847656 0 0 0 -1
596691.125 243667.875 90.738990783691406 0 0 0 -1
596691.3125 243667.171875 91.193367004394531 0 0 0 -1
596691.375 243666.484375 90.863235473632812 0 0 0 -1
596691.5 243665.78125 90.550735473632812 0 0 0 -1
596691.625 243665.09375 90.228889465332031 0 0 0 -1
596691.6875 243664.390625 89.658012390136719 0 0 0 -1
596691.75 243663.6875 89.07281494140625 0 0 0 -1
596691.875 243663 88.749565124511719 0 0 0 -1
596692 243662.296875 88.449272155761719 0 0 0 -1
596692.0625 243661.59375 87.977409362792969 0 0 0 -1
596692.125 243660.90625 87.269058227539062 0 0 0 -1
596692.25 243660.203125 87.249229431152344 0 0 0 -1
596691.5625 243660.0625 76.00634765625 0 0 0 -1
596691.6875 243659.359375 76.131423950195312 0 0 0 -1
596691.8125 243658.65625 75.980178833007812 0 0 0 -1
596691.9375 243657.953125 75.936683654785156 0 0 0 -1
596692.0625 243657.25 75.911041259765625 0 0 0 -1
596692.1875 243656.546875 75.910797119140625 0 0 0 -1
596692.3125 243655.84375 75.958229064941406 0 0 0 -1
596692.4375 243655.140625 75.931312561035156 0 0 0 -1
596692.5625 243654.4375 75.942329406738281 245 180 0 0
596692.6875 243653.75 75.978622436523438 245 180 0 0
596692.8125 243653.046875 75.97296142578125 245 180 0 0
596692.9375 243652.34375 75.972755432128906 245 180 0 0
596693.0625 243651.640625 75.955490112304688 245 180 0 0
596693.1875 243650.9375 75.953720092773438 245 180 0 0
596693.3125 243650.234375 76.022048950195312 0 0 0 -1
596693.4375 243649.53125 76.2578125 0 0 0 -1
596693.5625 243648.828125 76.065383911132812 0 0 0 -1
596693.6875 243648.109375 76.152565002441406 0 0 0 -1
596693.8125 243647.40625 76.000877380371094 0 0 0 -1
596694 243646.75 77.240089416503906 0 0 0 -1
596694.125 243646.046875 77.124122619628906 0 0 0 -1
596694.875 243645.59375 87.208854675292969 0 0 0 -1
596694.1875 243645.3125 76.129043579101562 0 0 0 -1
596695 243644.890625 87.385269165039062 0 0 0 -1
596695.1875 243644.203125 87.778900146484375 0 0 0 -1
596695.3125 243643.515625 88.023422241210938 0 0 0 -1
596695.4375 243642.828125 88.30072021484375 0 0 0 -1
596695.5625 243642.140625 88.553619384765625 0 0 0 -1
596695.75 243641.453125 88.914115905761719 0 0 0 -1
596695.875 243640.765625 89.142807006835938 0 0 0 -1
596696 243640.078125 89.491607666015625 0 0 0 -1
596696.125 243639.390625 89.698799133300781 0 0 0 -1
596696.3125 243638.703125 90.041038513183594 0 0 0 -1
596696.4375 243638.015625 90.338729858398438 0 0 0 -1
596696.5625 243637.34375 90.666770935058594 0 0 0 -1
596696.75 243636.65625 91.040115356445312 0 0 0 -1
596696.875 243635.96875 91.2293701171875 0 0 0 -1
596696.9375 243635.265625 90.973182678222656 0 0 0 -1
596697.0625 243634.5625 90.699928283691406 0 0 0 -1
596697.1875 243633.859375 90.491874694824219 0 0 0 -1
596697.3125 243633.15625 90.236717224121094 0 0 0 -1
596697.375 243632.453125 89.934944152832031 0 0 0 -1
596697.5 243631.75 89.65081787109375 0 0 0 -1
596697.625 243631.046875 89.399635314941406 0 0 0 -1
596697.75 243630.34375 89.196319580078125 0 0 0 -1
596697.8125 243629.640625 88.838973999023438 0 0 0 -1
596697.9375 243628.921875 88.629180908203125 0 0 0 -1
596698 243628.203125 87.789398193359375 0 0 0 -1
596698.125 243627.46875 87.159194946289062 0 0 0 -1
596697.375 243626.984375 74.864692687988281 0 0 0 -1
596697.5625 243626.328125 76.0836181640625 0 0 0 -1
596697.6875 243625.625 76.092277526855469 0 0 0 -1
596697.8125 243624.921875 76.106224060058594 0 0 0 -1
596697.9375 243624.234375 76.093208312988281 0 0 0 -1
596698.0625 243623.53125 76.065773010253906 0 0 0 -1
596698.1875 243622.828125 76.083740234375 0 0 0 -1
596698.3125 243622.109375 76.092079162597656 0 0 0 -1
596698.4375 243621.40625 76.085868835449219 0 0 0 -1
596698.5625 243620.71875 76.164947509765625 0 0 0 -1
596698.6875 243620.015625 76.174568176269531 0 0 0 -1
596698.0625 243620.0625 76.091171264648438 0 0 0 -1
596697.9375 243620.75 76.104217529296875 0 0 0 -1
596697.8125 243621.453125 76.117515563964844 0 0 0 -1
596697.6875 243622.15625 76.0340576171875 0 0 0 -1
596697.5625 243622.859375 76.122970581054688 0 0 0 -1
596697.4375 243623.5625 76.077651977539062 0 0 0 -1
596697.3125 243624.265625 76.092666625976562 0 0 0 -1
596697.1875 243624.96875 76.0706787109375 0 0 0 -1
596697.0625 243625.671875 76.069122314453125 0 0 0 -1
596696.8125 243626.328125 74.757431030273438 0 0 0 -1
596696.6875 243627.03125 74.789054870605469 0 0 0 -1
596697.3125 243628.21875 87.215827941894531 0 0 0 -1
596697.125 243629.671875 88.454605102539062 0 0 0 -1
596697.0625 243630.390625 89.273063659667969 0 0 0 -1
596696.9375 243631.109375 89.863052368164062 0 0 0 -1
596696.875 243631.8125 90.091896057128906 0 0 0 -1
596696.75 243632.515625 90.388389587402344 0 0 0 -1
596696.625 243633.21875 90.640571594238281 0 0 0 -1
596696.5 243633.921875 90.915550231933594 0 0 0 -1
596696.4375 243634.625 91.205818176269531 0 0 0 -1
596696.25 243635.328125 91.048088073730469 0 0 0 -1
596696.125 243636.015625 90.823455810546875 0 0 0 -1
596696 243636.6875 90.367523193359375 0 0 0 -1
596695.875 243637.375 90.211051940917969 0 0 0 -1
596695.6875 243638.0625 89.942924499511719 0 0 0 -1
596695.5625 243638.75 89.787322998046875 0 0 0 -1
596695.4375 243639.4375 89.213394165039062 0 0 0 -1
596695.25 243640.125 89.021232604980469 0 0 0 -1
596695.125 243640.8125 88.807113647460938 0 0 0 -1
596695 243641.5 88.503639221191406 0 0 0 -1
596694.875 243642.203125 88.320098876953125 0 0 0 -1
596694.6875 243642.890625 88.010040283203125 0 0 0 -1
596694.5625 243643.578125 87.67041015625 0 0 0 -1
596694.375 243644.25 87.1368408203125 0 0 0 -1
596693.5625 243644.671875 76.034614562988281 0 0 0 -1
596693.4375 243645.375 76.152328491210938 0 0 0 -1
596693.3125 243646.09375 76.220657348632812 0 0 0 -1
596693.1875 243646.796875 76.137275695800781 0 0 0 -1
596693.0625 243647.484375 76.18896484375 0 0 0 -1
596692.9375 243648.203125 76.103897094726562 0 0 0 -1
596692.8125 243648.90625 76.161552429199219 0 0 0 -1
596692.6875 243649.59375 76.107345581054688 245 180 0 0
596692.5625 243650.296875 75.99359130859375 245 180 0 0
596692.4375 243651 76.010032653808594 245 180 0 0
596692.3125 243651.703125 75.944679260253906 245 180 0 0
596692.1875 243652.40625 75.954544067382812 245 180 0 0
596692.0625 243653.109375 75.979835510253906 245 180 0 0
596691.9375 243653.8125 75.983039855957031 245 180 0 0
596691.8125 243654.515625 75.971794128417969 245 180 0 0
596691.6875 243655.21875 75.945976257324219 0 0 0 -1
596691.5 243655.921875 75.950447082519531 0 0 0 -1
596691.375 243656.640625 76.000289916992188 0 0 0 -1
596691.25 243657.34375 75.908424377441406 0 0 0 -1
596691.125 243658.03125 75.988990783691406 0 0 0 -1
596691.0625 243658.734375 76.164878845214844 0 0 0 -1
596690.875 243659.4375 76.03179931640625 0 0 0 -1
596690.75 243660.140625 76.098793029785156 0 0 0 -1
596691.375 243660.96875 87.202133178710938 0 0 0 -1
596690.625 243660.84375 75.846832275390625 0 0 0 -1
596691.25 243661.671875 87.017967224121094 0 0 0 -1
596691.1875 243662.375 88.270492553710938 0 0 0 -1
596691 243663.078125 87.954887390136719 0 0 0 -1
596691 243663.78125 89.006423950195312 0 0 0 -1
596690.875 243664.484375 89.419853210449219 0 0 0 -1
596690.75 243665.171875 89.666587829589844 0 0 0 -1
596690.625 243665.875 89.803871154785156 0 0 0 -1
596690.5625 243666.5625 90.255958557128906 0 0 0 -1
596690.4375 243667.265625 90.648666381835938 0 0 0 -1
596690.375 243667.953125 91.007301330566406 0 0 0 -1
596690.1875 243668.640625 90.628089904785156 0 0 0 -1
596690.0625 243669.328125 90.097427368164062 0 0 0 -1
596689.875 243670.03125 89.759193420410156 0 0 0 -1
596689.75 243670.71875 90.004592895507812 0 0 0 -1
596689.6875 243671.421875 90.257720947265625 0 0 0 -1
596689.5 243672.125 89.943191528320312 0 0 0 -1
596689.375 243672.8125 89.456954956054688 0 0 0 -1
596689.125 243673.515625 87.735107421875 0 0 0 -1
596688.9375 243674.203125 87.192497253417969 0 0 0 -1
596688.0625 243674.90625 75.792129516601562 0 0 0 -1
596687.9375 243675.609375 75.813674926757812 0 0 0 -1
596687.8125 243676.3125 75.82305908203125 0 0 0 -1
596687.6875 243677.015625 75.843086242675781 0 0 0 -1
596687.5625 243677.71875 75.846138000488281 0 0 0 -1
596687.4375 243678.421875 75.871986389160156 0 0 0 -1
596687.3125 243679.125 75.830886840820312 0 0 0 -1
596687.1875 243679.84375 75.842720031738281 0 0 0 -1
596687.0625 243680.53125 75.84735107421875 0 0 0 -1
596686.9375 243681.234375 75.814926147460938 0 0 0 -1
596686.8125 243681.9375 75.822837829589844 0 0 0 -1
596686.6875 243682.640625 75.781593322753906 0 0 0 -1
596686.5625 243683.34375 75.773063659667969 0 0 0 -1
596686.375 243684.046875 75.715019226074219 0 0 0 -1
596686.25 243684.765625 75.714820861816406 0 0 0 -1
596686.125 243685.453125 75.759857177734375 0 0 0 -1
596686.375 243686.109375 81.301795959472656 0 0 0 -1
596686.0625 243686.15625 75.924942016601562 0 0 0 -1
596686.6875 243686.734375 87.278244018554688 0 0 0 -1
596686.5625 243687.4375 87.436737060546875 0 0 0 -1
596686.5 243688.125 87.916984558105469 0 0 0 -1
596686.375 243688.828125 88.158416748046875 0 0 0 -1
596686.25 243689.515625 88.377685546875 0 0 0 -1
596686.125 243690.203125 88.552597045898438 0 0 0 -1
596686.0625 243690.890625 88.870010375976562 0 0 0 -1
596685.9375 243691.578125 89.277481079101562 0 0 0 -1
596685.8125 243692.28125 89.483688354492188 0 0 0 -1
596685.6875 243692.96875 89.727493286132812 0 0 0 -1
596685.625 243693.65625 89.8822021484375 0 0 0 -1
596685.4375 243694.359375 89.757865905761719 0 0 0 -1
596685.375 243695.03125 90.753211975097656 0 0 0 -1
596685.25 243695.734375 90.32330322265625 0 0 0 -1
596685.1875 243696.421875 90.990760803222656 0 0 0 -1
596685.0625 243697.109375 91.18963623046875 0 0 0 -1
596684.9375 243697.8125 90.893455505371094 0 0 0 -1
596684.75 243698.515625 90.505485534667969 0 0 0 -1
596684.625 243699.21875 90.35723876953125 0 0 0 -1
596684.4375 243699.921875 89.985221862792969 0 0 0 -1
596684.3125 243700.625 89.633377075195312 0 0 0 -1
596684.1875 243701.328125 89.399345397949219 0 0 0 -1
596684 243702.03125 89.093162536621094 0 0 0 -1
596683.875 243702.71875 88.757438659667969 0 0 0 -1
596683.75 243703.421875 88.512031555175781 0 0 0 -1
596683.5625 243704.125 88.20989990234375 0 0 0 -1
596683.4375 243704.84375 87.900764465332031 0 0 0 -1
596683.3125 243705.546875 87.532424926757812 0 0 0 -1
596683.125 243706.25 87.246429443359375 0 0 0 -1
596682.125 243707.296875 75.15155029296875 0 0 0 -1
596682 243707.984375 75.183074951171875 0 0 0 -1
596681.875 243708.6875 75.137733459472656 0 0 0 -1
596681.6875 243709.421875 74.141502380371094 0 0 0 -1
596681.5625 243710.125 74.246566772460938 0 0 0 -1
596681.5 243710.8125 75.129043579101562 0 0 0 -1
596681.375 243711.515625 75.174850463867188 0 0 0 -1
596681.1875 243712.25 74.085899353027344 0 0 0 -1
596681.0625 243712.953125 74.065574645996094 0 0 0 -1
596680.9375 243713.65625 74.087966918945312 0 0 0 -1
596680.8125 243714.34375 74.232818603515625 0 0 0 -1
596680.6875 243715.0625 74.146629333496094 0 0 0 -1
596680.5625 243715.765625 74.143241882324219 0 0 0 -1
596680.4375 243716.46875 74.184928894042969 0 0 0 -1
596680.25 243717.1875 74.107627868652344 0 0 0 -1
596680.1875 243717.890625 74.2100830078125 0 0 0 -1
596680 243718.59375 74.128364562988281 0 0 0 -1
596679.875 243719.296875 74.124534606933594 0 0 0 -1
596679.75 243720 74.066108703613281 0 0 0 -1
596679.625 243720.71875 73.67974853515625 0 0 0 -1
596679.5 243721.40625 74.042900085449219 0 0 0 -1
596679.375 243722.109375 74.025856018066406 0 0 0 -1
596679.25 243722.828125 74.026611328125 0 0 0 -1
596679.125 243723.53125 73.998191833496094 0 0 0 -1
596679 243724.234375 74.059608459472656 0 0 0 -1
596678.875 243724.9375 74.039108276367188 0 0 0 -1
596678.75 243725.65625 74.011688232421875 0 0 0 -1
596678.625 243726.359375 74.024383544921875 0 0 0 -1
596678.5 243727.0625 73.970535278320312 0 0 0 -1
596678.375 243727.765625 74.019172668457031 0 0 0 -1
596678.25 243728.46875 74.068130493164062 0 0 0 -1
596678.125 243729.171875 74.030166625976562 0 0 0 -1
596677.9375 243729.875 73.990341186523438 0 0 0 -1
596677.8125 243730.578125 74.057861328125 0 0 0 -1
596677.6875 243731.28125 74.021446228027344 0 0 0 -1
596677.5625 243731.984375 74.017623901367188 0 0 0 -1
596677.25 243731.328125 73.985908508300781 0 0 0 -1
596677.375 243730.625 74.061965942382812 0 0 0 -1
596677.5 243729.90625 74.04144287109375 0 0 0 -1
596677.625 243729.21875 74.024085998535156 0 0 0 -1
596677.75 243728.515625 73.9820556640625 0 0 0 -1
596677.875 243727.8125 74.030349731445312 0 0 0 -1
596678 243727.109375 73.936882019042969 0 0 0 -1
596678.125 243726.390625 73.918693542480469 0 0 0 -1
596678.25 243725.6875 74.032966613769531 0 0 0 -1
596678.375 243724.984375 73.973152160644531 0 0 0 -1
596678.5 243724.28125 74.07568359375 0 0 0 -1
596678.625 243723.578125 74.004447937011719 0 0 0 -1
596678.75 243722.875 74.025558471679688 0 0 0 -1
596678.875 243722.171875 74.054656982421875 0 0 0 -1
596679 243721.46875 74.017082214355469 0 0 0 -1
596679.125 243720.765625 74.044670104980469 0 0 0 -1
596679.25 243720.0625 74.077842712402344 0 0 0 -1
596679.375 243719.359375 74.123710632324219 0 0 0 -1
596679.5 243718.640625 74.139915466308594 0 0 0 -1
596679.625 243717.9375 74.141426086425781 0 0 0 -1
596679.75 243717.234375 74.173583984375 0 0 0 -1
596679.875 243716.53125 74.153877258300781 0 0 0 -1
596680 243715.8125 74.164436340332031 0 0 0 -1
596680.125 243715.125 74.145782470703125 0 0 0 -1
596680.25 243714.40625 74.141983032226562 0 0 0 -1
596680.375 243713.703125 74.146354675292969 0 0 0 -1
596680.5 243713 74.121414184570312 0 0 0 -1
596680.625 243712.296875 74.119163513183594 0 0 0 -1
596680.75 243711.59375 74.037818908691406 0 0 0 -1
596680.9375 243710.875 74.387596130371094 0 0 0 -1
596681 243710.1875 74.187690734863281 0 0 0 -1
596681.125 243709.46875 74.134681701660156 0 0 0 -1
596681.3125 243708.765625 74.358688354492188 0 0 0 -1
596681.4375 243708.046875 75.008888244628906 0 0 0 -1
596681.625 243707.328125 75.405967712402344 0 0 0 -1
596681.6875 243706.65625 74.261756896972656 0 0 0 -1
596682.6875 243705.59375 87.278244018554688 0 0 0 -1
596681.75 243705.96875 73.779983520507812 0 0 0 -1
596682.875 243704.90625 87.427719116210938 0 0 0 -1
596683 243704.1875 87.79901123046875 0 0 0 -1
596683.125 243703.484375 88.128562927246094 0 0 0 -1
596683.3125 243702.78125 88.344047546386719 0 0 0 -1
596683.4375 243702.078125 88.651992797851562 0 0 0 -1
596683.5625 243701.375 89.0625 0 0 0 -1
596683.75 243700.671875 89.249481201171875 0 0 0 -1
596683.5 243700.734375 86.479743957519531 0 0 0 -1
596683.875 243699.96875 89.618537902832031 0 0 0 -1
596684 243699.265625 89.955780029296875 0 0 0 -1
596684.1875 243698.5625 90.156471252441406 0 0 0 -1
596684.3125 243697.875 90.457023620605469 0 0 0 -1
596684.4375 243697.171875 90.775672912597656 0 0 0 -1
596684.625 243696.453125 91.186729431152344 0 0 0 -1
596684.75 243695.765625 91.1424560546875 0 0 0 -1
596684.8125 243695.078125 90.809593200683594 0 0 0 -1
596684.9375 243694.390625 90.594436645507812 0 0 0 -1
596685.0625 243693.703125 90.324844360351562 0 0 0 -1
596685.125 243693.015625 89.998321533203125 0 0 0 -1
596685.25 243692.328125 89.762062072753906 0 0 0 -1
596685.375 243691.640625 89.491020202636719 0 0 0 -1
596685.4375 243690.9375 89.158164978027344 0 0 0 -1
596685.5625 243690.25 88.922981262207031 0 0 0 -1
596685.6875 243689.5625 88.69561767578125 0 0 0 -1
596685.75 243688.875 88.421432495117188 0 0 0 -1
596685.875 243688.171875 88.097747802734375 0 0 0 -1
596686 243687.484375 87.909080505371094 0 0 0 -1
596686.0625 243686.796875 87.581336975097656 0 0 0 -1
596686.1875 243686.09375 87.311172485351562 0 0 0 -1
596686.3125 243685.40625 87.352943420410156 0 0 0 -1
596685.875 243685.46875 81.250579833984375 0 0 0 -1
596685.6875 243684.8125 75.825889587402344 0 0 0 -1
596685.75 243684.109375 75.703865051269531 0 0 0 -1
596685.875 243683.390625 75.719291687011719 0 0 0 -1
596686.0625 243682.703125 75.822563171386719 0 0 0 -1
596686.1875 243682 75.794090270996094 0 0 0 -1
596686.3125 243681.296875 75.79608154296875 0 0 0 -1
596686.4375 243680.59375 75.813308715820312 0 0 0 -1
596686.5625 243679.890625 75.808677673339844 0 0 0 -1
596686.6875 243679.1875 75.84173583984375 0 0 0 -1
596686.8125 243678.484375 75.830421447753906 0 0 0 -1
596686.9375 243677.78125 75.841896057128906 0 0 0 -1
596687.0625 243677.078125 75.816421508789062 0 0 0 -1
596687.1875 243676.375 75.843772888183594 0 0 0 -1
596687.3125 243675.671875 75.78936767578125 0 0 0 -1
596688.1875 243674.96875 87.488388061523438 0 0 0 -1
596687.4375 243674.96875 75.872383117675781 0 0 0 -1
596688.3125 243674.265625 87.369873046875 0 0 0 -1
596688.4375 243673.578125 87.912437438964844 0 0 0 -1
596688.625 243672.875 88.258438110351562 0 0 0 -1
596688.75 243672.1875 88.816841125488281 0 0 0 -1
596688.9375 243671.5 89.662162780761719 0 0 0 -1
596689.125 243670.8125 90.139198303222656 0 0 0 -1
596689.25 243670.109375 89.988479614257812 0 0 0 -1
596689.375 243669.40625 90.349067687988281 0 0 0 -1
596689.5 243668.71875 90.812408447265625 0 0 0 -1
596689.6875 243668.03125 91.149139404296875 0 0 0 -1
596689.8125 243667.328125 91.012687683105469 0 0 0 -1
596689.875 243666.640625 90.594932556152344 0 0 0 -1
596690 243665.9375 90.100509643554688 0 0 0 -1
596690.0625 243665.25 89.750968933105469 0 0 0 -1
596690.125 243664.546875 89.020339965820312 0 0 0 -1
596690.25 243663.859375 88.798934936523438 0 0 0 -1
596690.375 243663.15625 88.370864868164062 0 0 0 -1
596690.4375 243662.453125 87.958198547363281 0 0 0 -1
596690.5625 243661.75 87.26409912109375 0 0 0 -1
596690.6875 243661.046875 87.206398010253906 0 0 0 -1
596689.9375 243660.921875 76.262474060058594 0 0 0 -1
596690.0625 243660.21875 76.287300109863281 0 0 0 -1
596690.1875 243659.515625 76.240203857421875 0 0 0 -1
596690.3125 243658.828125 76.208518981933594 0 0 0 -1
596690.4375 243658.109375 75.953010559082031 0 0 0 -1
596690.5625 243657.40625 75.954582214355469 0 0 0 -1
596690.6875 243656.703125 75.949043273925781 0 0 0 -1
596690.8125 243656 75.943931579589844 0 0 0 -1
596690.9375 243655.3125 76.121223449707031 245 180 0 0
596691.0625 243654.609375 76.201759338378906 245 180 0 0
596691.1875 243653.90625 76.083427429199219 245 180 0 0
596691.3125 243653.203125 76.107566833496094 245 180 0 0
596691.4375 243652.5 75.969985961914062 245 180 0 0
596691.5625 243651.796875 75.989990234375 245 180 0 0
596691.6875 243651.09375 75.995452880859375 245 180 0 0
596691.8125 243650.390625 75.971504211425781 245 180 0 0
596691.9375 243649.6875 75.970268249511719 245 180 0 0
596692.0625 243648.984375 76.056747436523438 245 180 0 0
596692.1875 243648.296875 76.166099548339844 245 180 0 0
596692.3125 243647.578125 76.034103393554688 0 0 0 -1
596692.4375 243646.875 75.98492431640625 0 0 0 -1
596692.5625 243646.171875 76.132926940917969 0 0 0 -1
596692.75 243645.46875 76.406082153320312 0 0 0 -1
596692.8125 243644.765625 76.33563232421875 0 0 0 -1
596692.9375 243644.0625 76.006553649902344 0 0 0 -1
596693.75 243643.65625 87.270774841308594 0 0 0 -1
596693.0625 243643.359375 76.081504821777344 0 0 0 -1
596693.875 243642.953125 87.331039428710938 0 0 0 -1
596694.0625 243642.265625 87.7083740234375 0 0 0 -1
596694.1875 243641.578125 88.013916015625 0 0 0 -1
596694.3125 243640.890625 88.190109252929688 0 0 0 -1
596694.4375 243640.203125 88.538688659667969 0 0 0 -1
596694.625 243639.515625 88.83551025390625 0 0 0 -1
596694.75 243638.828125 89.102737426757812 0 0 0 -1
596694.875 243638.15625 89.415191650390625 0 0 0 -1
596695 243637.453125 89.673355102539062 0 0 0 -1
596695.1875 243636.765625 89.9866943359375 0 0 0 -1
596695.3125 243636.09375 90.317977905273438 0 0 0 -1
596695.4375 243635.40625 90.514984130859375 0 0 0 -1
596695.625 243634.71875 90.872055053710938 0 0 0 -1
596695.75 243634.03125 91.164627075195312 0 0 0 -1
596695.9375 243633.390625 92.476661682128906 0 0 0 -1
596696 243632.640625 90.898948669433594 0 0 0 -1
596696.0625 243631.9375 90.500152587890625 0 0 0 -1
596696.1875 243631.21875 89.979751586914062 0 0 0 -1
596696.25 243630.484375 89.145919799804688 0 0 0 -1
596696.3125 243629.78125 88.626380920410156 0 0 0 -1
596696.4375 243629.046875 87.845787048339844 0 0 0 -1
596696.5 243628.3125 87.177604675292969 0 0 0 -1
596695.75 243627.8125 74.356834411621094 0 0 0 -1
596695.875 243627.125 74.706062316894531 0 0 0 -1
596696 243626.421875 74.749015808105469 0 0 0 -1
596696.125 243625.734375 74.874618530273438 0 0 0 -1
596696.25 243625.015625 74.706619262695312 0 0 0 -1
596696.4375 243624.375 76.081314086914062 0 0 0 -1
596696.5625 243623.671875 76.091270446777344 0 0 0 -1
596696.6875 243622.96875 76.0963134765625 0 0 0 -1
596696.8125 243622.265625 76.144424438476562 0 0 0 -1
596696.9375 243621.5625 76.073219299316406 0 0 0 -1
596697.0625 243620.859375 76.132026672363281 0 0 0 -1
596697.1875 243620.15625 76.134025573730469 0 0 0 -1
596696.5625 243620.296875 76.101020812988281 0 0 0 -1
596696.4375 243621 76.069313049316406 0 0 0 -1
596696.3125 243621.703125 76.105278015136719 0 0 0 -1
596696.1875 243622.390625 76.134368896484375 0 0 0 -1
596696.0625 243623.109375 76.066276550292969 0 0 0 -1
596695.9375 243623.8125 75.909095764160156 0 0 0 -1
596695.75 243624.46875 74.773338317871094 0 0 0 -1
596695.625 243625.171875 74.826164245605469 0 0 0 -1
596695.5 243625.84375 74.74603271484375 0 0 0 -1
596695.375 243626.53125 74.748275756835938 0 0 0 -1
596695.3125 243627.296875 75.9979248046875 0 0 0 -1
596695.8125 243628.484375 87.275077819824219 0 0 0 -1
596695.0625 243628 74.800529479980469 0 0 0 -1
596695.6875 243629.234375 87.094039916992188 0 0 0 -1
596695.5625 243630.03125 87.933013916015625 0 0 0 -1
596695.5 243630.78125 88.743453979492188 0 0 0 -1
596695.4375 243631.4375 89.242691040039062 0 0 0 -1
596695.375 243632.109375 89.951362609863281 0 0 0 -1
596695.4375 243633.625 95.133949279785156 0 0 0 -1
596695.25 243633.515625 91.879959106445312 0 0 0 -1
596695.0625 243634.171875 91.438148498535156 0 0 0 -1
596694.875 243634.828125 90.555221557617188 0 0 0 -1
596694.75 243635.515625 90.12860107421875 0 0 0 -1
596694.625 243636.203125 89.7994384765625 0 0 0 -1
596694.4375 243636.890625 89.515647888183594 0 0 0 -1
596694.3125 243637.578125 89.284576416015625 0 0 0 -1
596694.1875 243638.265625 89.046592712402344 0 0 0 -1
596694 243638.953125 88.724166870117188 0 0 0 -1
596693.875 243639.640625 88.442031860351562 0 0 0 -1
596693.75 243640.328125 88.185302734375 0 0 0 -1
596693.625 243641.015625 87.948890686035156 0 0 0 -1
596693.4375 243641.703125 87.545989990234375 0 0 0 -1
596693.3125 243642.390625 87.150726318359375 0 0 0 -1
596692.625 243642.078125 75.774429321289062 0 0 0 -1
596692.5 243642.78125 76.022956848144531 0 0 0 -1
596692.375 243643.484375 76.025077819824219 0 0 0 -1
596692.375 243644.234375 78.043647766113281 0 0 0 -1
