ply
format ascii 1.0
comment Generated by the CGAL library
comment label -1 unclassified
comment label 0 ground
comment label 1 facade
comment label 2 roof
comment label 3 vegetation
element vertex 354
property double x
property double y
property double z
property int training
property int label
property double nx
property double ny
property double nz
property uchar red
property uchar green
property uchar blue
end_header
-386.64517211914062 -149.38523864746091 48.263801574707031 2 2 -0.31359300017356873 -0.32246100902557367 0.89312797784805298 255 102 51
-413.367919921875 -139.10020446777341 36.458187103271477 -1 0 0.15154300630092621 -0.1447159945964813 0.97780001163482666 127 105 99
-426.513427734375 -146.3059997558594 38.859607696533203 3 3 -0.91972899436950684 -0.37226301431655878 0.1245749965310097 0 143 0
-419.47866821289062 -134.45843505859381 37.072769165039062 -1 3 0.28531798720359802 -0.49312999844551092 0.82183802127838135 0 143 0
-448.84442138671881 -126.8085174560547 49.070056915283203 -1 2 0.83229601383209229 0.092184998095035553 0.54661297798156738 255 102 51
-395.2916259765625 -140.9403991699219 48.086265563964837 2 2 -0.72826802730560303 -0.64667898416519165 0.22678700089454651 255 102 51
-377.2171630859375 -142.53074645996091 37.077335357666023 -1 0 0.63447797298431396 0.72448897361755371 0.26935899257659912 127 105 99
-439.58837890625 -122.81471252441411 44.098663330078118 -1 2 0.69797998666763306 -0.63598799705505371 -0.32915401458740229 255 102 51
-416.51950073242188 -112.62306976318359 49.563442230224609 2 2 0.31577199697494512 0.24906300008296969 0.91556298732757568 255 102 51
-407.29971313476562 -144.59004211425781 41.437023162841797 -1 3 -0.69077098369598389 0.57957601547241211 0.43235000967979431 0 143 0
-427.30191040039062 -125.6102600097656 43.822303771972663 -1 3 -0.40357398986816412 -0.88809597492218018 0.22002799808979029 0 143 0
-381.58859252929688 -147.5104064941406 49.915325164794922 2 2 0.9632989764213562 -0.018039999529719349 0.26782399415969849 255 102 51
-401.6251220703125 -119.8699111938477 45.762550354003913 -1 2 0.39277499914169312 0.4014270007610321 0.8273959755897522 255 102 51
-414.19940185546881 -135.44703674316409 37.445095062255859 -1 3 -0.79023301601409912 0.60987699031829834 0.059843000024557107 0 143 0
-441.4798583984375 -125.8754806518555 36.318363189697273 -1 0 0.65269798040390015 -0.56783497333526611 0.50154602527618408 127 105 99
-434.52215576171881 -140.31382751464841 38.033798217773438 -1 3 -0.047975998371839523 -0.99877297878265381 0.012319000437855721 0 143 0
-394.52740478515619 -143.60467529296881 39.617805480957031 -1 1 -0.65750801563262939 -0.75337499380111694 -0.01047699991613626 214 214 214
-438.79327392578119 -106.9724197387695 47.017402648925781 -1 2 -0.29328501224517822 0.39136201143264771 0.8722500205039978 255 102 51
-440.05404663085938 -120.99485778808589 46.096328735351562 -1 2 0.66576498746871948 -0.41526299715042109 0.61993098258972168 255 102 51
-379.94744873046881 -141.4021301269531 46.959648132324219 -1 2 0.3595220148563385 0.92889600992202759 -0.088858999311923981 255 102 51
-426.6790771484375 -111.6545791625977 39.130447387695312 -1 1 -0.51834702491760254 -0.85109502077102661 -0.083387002348899841 214 214 214
-403.34689331054688 -134.8190612792969 40.802261352539062 -1 1 -0.79642802476882935 -0.60414201021194458 -0.026732999831438061 214 214 214
-433.81997680664062 -102.0176315307617 48.167007446289062 -1 2 -0.35657599568366999 -0.29675400257110601 0.88588398694992065 255 102 51
-440.70346069335938 -124.097526550293 36.795139312744141 -1 0 0.91361600160598755 0.20002299547195429 0.35397300124168402 127 105 99
-418.39920043945312 -101.34967041015619 36.801883697509773 -1 0 0.825236976146698 0.44022101163864141 0.35382100939750671 127 105 99
-439.71347045898438 -107.2358932495117 47.25238037109375 -1 2 -0.1317120045423508 0.49121600389480591 0.86102199554443359 255 102 51
-412.82992553710938 -103.4892044067383 36.361770629882812 -1 0 -0.05635099858045578 -0.38519200682640081 0.92111498117446899 127 105 99
-438.04147338867188 -113.8484420776367 48.478012084960938 -1 2 0.1010719984769821 -0.055071000009775162 0.99335402250289917 255 102 51
-419.88589477539062 -134.62284851074219 37.049510955810547 -1 3 -0.2721329927444458 -0.3505139946937561 0.89614999294281006 0 143 0
-428.494384765625 -122.06996917724609 44.457775115966797 -1 3 -0.61469900608062744 0.26548498868942261 0.7427399754524231 0 143 0
-417.12673950195312 -111.4633407592773 50.9075927734375 2 2 0.39797499775886541 -0.1582400053739548 0.90364599227905273 255 102 51
-443.15533447265619 -113.45827484130859 47.868556976318359 -1 2 -0.25705200433731079 -0.34345000982284551 0.90330898761749268 255 102 51
-437.49130249023438 -120.23040771484381 42.251983642578118 -1 1 0.85035198926925659 -0.47567799687385559 0.2250169962644577 214 214 214
-425.14169311523438 -123.43190002441411 43.975856781005859 -1 3 0.87806099653244019 -0.29276901483535772 0.37854498624801641 0 143 0
-433.24887084960938 -131.29069519042969 36.719734191894531 -1 0 0.26078701019287109 0.1264079958200455 0.9570850133895874 127 105 99
-443.31118774414062 -127.8076248168945 41.141456604003913 -1 1 0.70875900983810425 -0.70499199628829956 0.025433000177145001 214 214 214
-435.05874633789062 -106.5205383300781 48.496856689453118 -1 2 -0.40885698795318598 0.29372701048851008 0.86403697729110718 255 102 51
-432.0361328125 -141.4640197753906 36.482418060302727 -1 3 -0.33374699950218201 0.38212400674819952 0.86173897981643677 0 143 0
-409.72732543945312 -139.1405944824219 39.209342956542969 -1 3 0.012807999737560751 0.99817001819610596 -0.059105999767780297 0 143 0
-438.52798461914062 -130.95759582519531 38.777645111083977 -1 0 -0.32004499435424799 0.93422198295593262 -0.157479003071785 127 105 99
-441.43148803710938 -137.71424865722659 36.84637451171875 -1 0 -0.56602299213409424 0.59166699647903442 0.5740630030632019 127 105 99
-410.86447143554688 -109.4810028076172 36.88958740234375 -1 0 0.68481200933456421 0.70905601978302002 0.16814200580120089 127 105 99
-420.60391235351562 -104.0737380981445 47.202861785888672 2 2 -0.078436002135276794 0.5001099705696106 0.86240202188491821 255 102 51
-418.89901733398438 -101.46144866943359 46.919689178466797 -1 2 -0.60970902442932129 -0.09948199987411499 0.78635698556900024 255 102 51
-421.86663818359381 -130.08131408691409 39.462989807128913 -1 3 -0.40561398863792419 -0.84963202476501465 -0.33704999089241028 0 143 0
-435.174072265625 -134.146240234375 41.424911499023438 -1 3 0.75084400177001953 -0.47261300683021551 0.46137800812721252 0 143 0
-435.25146484375 -99.482162475585938 45.871368408203118 -1 2 -0.67395102977752686 0.58799600601196289 0.44727098941802979 255 102 51
-448.63827514648438 -114.3766632080078 38.447067260742188 -1 1 -0.57899701595306396 0.8146970272064209 -0.032102998346090317 214 214 214
-442.05838012695312 -104.0490646362305 36.696262359619141 -1 0 0.054412998259067542 0.14952899515628809 0.98725897073745728 127 105 99
-371.56097412109381 -147.19276428222659 36.598701477050781 -1 0 0.40552100539207458 -0.46246400475502009 0.78846698999404907 127 105 99
-431.93313598632812 -135.24815368652341 36.796432495117188 -1 3 0.2384929955005646 0.53592497110366821 0.80988001823425293 0 143 0
-427.77685546875 -106.62384033203119 46.977397918701172 2 2 -0.28329700231552118 -0.39495000243186951 0.87393200397491455 255 102 51
-434.542236328125 -105.50266265869141 49.362945556640618 -1 2 -0.75214499235153198 -0.64551699161529541 0.13260999321937561 255 102 51
-416.54043579101562 -115.7551803588867 48.007762908935547 2 2 -0.43867900967597961 -0.38405299186706537 0.81244301795959473 255 102 51
-390.13912963867188 -131.60569763183591 48.155998229980469 -1 2 0.75712800025939941 -0.076546996831893921 0.64876699447631836 255 102 51
-415.1878662109375 -137.02442932128909 36.739456176757812 -1 0 -0.60164999961853027 0.54562199115753174 0.58336400985717773 127 105 99
-435.2445068359375 -86.043121337890625 36.429039001464837 0 0 0.0074180001392960548 -0.2024980038404465 0.97925502061843872 127 105 99
-434.40286254882812 -99.46148681640625 46.607860565185547 -1 2 -0.5510450005531311 0.67567098140716553 0.48971098661422729 255 102 51
-425.13052368164062 -127.756706237793 38.706069946289062 -1 3 -0.99435001611709595 -0.04175499826669693 0.097593002021312714 0 143 0
-421.27996826171881 -105.862174987793 48.279277801513672 2 2 0.035923000425100327 0.45116499066352839 0.89171701669692993 255 102 51
-398.76235961914062 -121.2370071411133 39.931064605712891 -1 1 0.74422198534011841 0.66633802652359009 -0.046112000942230218 214 214 214
-395.58700561523438 -142.5442810058594 36.501045227050781 -1 0 -0.40408501029014587 -0.76019400358200073 0.50874298810958862 127 105 99
-389.62600708007812 -131.7655334472656 45.643276214599609 -1 2 0.5654829740524292 0.43865600228309631 0.69843298196792603 255 102 51
-424.95587158203119 -111.653938293457 47.876049041748047 2 2 0.23291100561618799 -0.7756350040435791 0.58663702011108398 255 102 51
-407.45767211914062 -112.6526412963867 37.758171081542969 -1 1 0.74723798036575317 0.65952599048614502 -0.081612996757030487 214 214 214
-390.43182373046881 -147.0516052246094 37.961746215820312 -1 1 -0.6069759726524353 -0.74509698152542114 0.27642500400543207 214 214 214
-386.6507568359375 -148.5037536621094 48.230968475341797 2 2 -0.6068909764289856 0.27440199255943298 0.74591398239135742 255 102 51
-374.08749389648438 -144.96282958984381 44.794475555419922 -1 2 0.54816699028015137 0.51797002553939819 0.65667301416397095 255 102 51
-395.86959838867188 -142.78559875488281 44.597671508789062 -1 2 -0.76105701923370361 -0.59887802600860596 0.24927300214767459 255 102 51
-426.39334106445312 -115.81434631347661 36.160972595214837 -1 0 -0.02257500030100346 -0.062093000859022141 0.99781501293182373 127 105 99
-424.1444091796875 -143.9713134765625 40.938369750976562 3 3 -0.066808998584747314 0.92047697305679321 0.38504400849342352 0 143 0
-418.58847045898438 -101.7618026733398 46.533424377441413 -1 2 0.74002599716186523 -0.62836098670959473 0.23983900249004361 255 102 51
-425.2366943359375 -111.4573211669922 48.112293243408203 -1 2 -0.1096789985895157 -0.56928002834320068 0.81479501724243164 255 102 51
-393.11016845703119 -136.1302185058594 50.228790283203118 2 2 0.61925101280212402 0.76876699924468994 0.1597660034894943 255 102 51
-435.285400390625 -138.9662170410156 39.712871551513672 -1 3 -0.44414699077606201 -0.1246649995446205 0.88723897933959961 0 143 0
-431.09323120117188 -148.11396789550781 37.391685485839837 -1 0 0.24571600556373599 -0.51853197813034058 0.818992018699646 127 105 99
-435.21197509765619 -108.3149337768555 49.415756225585938 -1 2 -0.21582399308681491 0.19594800472259519 0.95656901597976685 255 102 51
-422.7713623046875 -144.4154968261719 39.020244598388672 3 3 0.71965199708938599 0.68502199649810791 -0.1133420020341873 0 143 0
-378.43637084960938 -141.46516418457031 38.094047546386719 -1 1 0.65024298429489136 0.75157898664474487 0.1109689995646477 214 214 214
-404.19149780273438 -125.2110137939453 50.09100341796875 2 2 0.71262097358703613 0.68675398826599121 0.14331899583339691 255 102 51
-435.10638427734381 -99.524269104003906 36.396717071533203 -1 0 -0.1063209995627403 0.10860899835824971 0.98838299512863159 127 105 99
-422.73556518554688 -102.94764709472661 47.523418426513672 2 2 0.3438819944858551 0.37219500541687012 0.86210000514984131 255 102 51
-397.18533325195312 -138.8252258300781 48.120563507080078 2 2 0.33032900094985962 -0.60348600149154663 0.72573298215866089 255 102 51
-433.90890502929688 -135.05818176269531 40.528163909912109 -1 3 0.34703901410102839 0.80031001567840576 0.48894700407981873 0 143 0
-389.71505737304688 -145.41729736328119 47.164775848388672 2 2 -0.74349600076675415 0.24615700542926791 0.62178802490234375 255 102 51
-425.86282348632812 -93.793586730957031 36.403781890869141 -1 0 0.58805000782012939 0.35622799396514893 0.72615402936935425 127 105 99
-443.2427978515625 -108.4893341064453 39.615882873535163 -1 1 -0.85863202810287476 0.50354498624801636 -0.095877997577190399 214 214 214
-412.8785400390625 -134.76947021484381 38.324745178222663 -1 3 0.17908099293708801 0.78507000207901001 0.59295499324798584 0 143 0
-441.01422119140619 -120.3100662231445 47.107635498046882 -1 2 0.75446897745132446 0.18417799472808841 0.62996399402618408 255 102 51
-447.01504516601562 -131.47154235839841 38.632339477539062 -1 1 0.54999798536300659 -0.83410698175430298 -0.042047999799251563 214 214 214
-430.926025390625 -82.922622680664062 36.289512634277337 0 0 -0.03009600006043911 0.068770997226238251 0.99717801809310913 127 105 99
-446.13284301757812 -130.8223876953125 40.813995361328118 -1 1 0.70549899339675903 -0.70812797546386719 0.028739999979734421 214 214 214
-421.82632446289062 -101.6516571044922 47.313869476318359 2 2 0.36729699373245239 -0.30420601367950439 0.87894898653030396 255 102 51
-404.79202270507812 -113.425666809082 36.377586364746087 -1 0 0.01501199975609779 0.46460199356079102 0.88539302349090576 127 105 99
-401.38436889648438 -130.5176696777344 48.660564422607422 2 2 -0.57197999954223633 0.63350498676300049 0.52106702327728271 255 102 51
-435.0028076171875 -100.134895324707 47.209087371826172 -1 2 -0.57396697998046875 0.71886700391769409 0.39216300845146179 255 102 51
-446.43365478515619 -128.12892150878909 48.340805053710938 -1 2 0.1046409979462624 0.049486000090837479 0.99327802658081055 255 102 51
-416.21002197265619 -116.78521728515619 48.001060485839837 2 2 -0.57783597707748413 0.27649599313735962 0.76788997650146484 255 102 51
-393.26602172851562 -144.93922424316409 42.277767181396477 -1 1 -0.68702602386474609 -0.70572501420974731 0.17305099964141851 214 214 214
-443.45816040039062 -127.8587951660156 37.484706878662109 -1 0 0.70722997188568115 -0.70648497343063354 0.026551999151706699 127 105 99
-414.70303344726562 -117.4451065063477 48.139236450195312 2 2 0.043613001704216003 -0.37268498539924622 0.92693299055099487 255 102 51
-410.39697265625 -120.3390655517578 50.224449157714837 2 2 -0.87362998723983765 0.4843049943447113 -0.047116000205278397 255 102 51
-424.17092895507812 -95.33868408203125 46.403755187988281 -1 2 0.60372400283813477 0.63663500547409058 0.47980499267578119 255 102 51
-435.739990234375 -129.95426940917969 36.46173095703125 -1 0 0.039400998502969742 0.29627698659896851 0.9542890191078186 127 105 99
-424.41030883789062 -109.5517959594727 48.412548065185547 2 2 -0.28548499941825872 0.27249899506568909 0.91882699728012085 255 102 51
-416.08255004882812 -133.04670715332031 36.345863342285163 -1 0 0.46812999248504639 -0.054177001118659973 0.88199800252914429 127 105 99
-422.24960327148438 -127.8834533691406 42.180316925048828 -1 3 0.81148499250411987 0.57169502973556519 -0.1210649982094765 0 143 0
-422.83584594726562 -104.01934814453119 48.206333160400391 2 2 0.36467599868774409 0.43168100714683533 0.82502299547195435 255 102 51
-427.62783813476562 -111.1484298706055 39.883411407470703 -1 1 -0.65509402751922607 -0.75549900531768799 -0.0085199996829032898 214 214 214
-435.66665649414062 -131.2503967285156 42.632781982421882 -1 3 0.89532202482223511 0.1533479988574982 0.41818898916244512 0 143 0
-414.50119018554688 -114.6145401000977 49.553802490234382 2 2 0.2641499936580658 0.31261101365089422 0.91241401433944702 255 102 51
-420.95394897460938 -111.2639541625977 48.116065979003913 2 2 -0.52599000930786133 0.1374309957027435 0.83931297063827515 255 102 51
-426.66519165039062 -127.2373428344727 36.254772186279297 -1 0 -0.17758700251579279 -0.039338000118732452 0.9833189845085144 127 105 99
-413.833740234375 -117.8725128173828 48.818695068359382 2 2 -0.96513301134109497 0.19772399961948389 0.17153200507163999 255 102 51
-426.11709594726562 -113.0898513793945 44.392818450927727 -1 1 -0.74648702144622803 -0.66059499979019165 -0.079815000295639038 214 214 214
-418.59524536132812 -103.2453536987305 45.8438720703125 -1 2 0.3653700053691864 0.21781699359416959 0.90501999855041504 255 102 51
-385.39376831054688 -136.23457336425781 46.188575744628913 -1 2 0.71967101097106934 0.69384998083114624 0.025412999093532559 255 102 51
-445.0191650390625 -114.36009216308589 47.779819488525391 -1 2 -0.38585299253463751 0.50088298320770264 0.77474802732467651 255 102 51
-407.227294921875 -115.4818801879883 48.112781524658203 -1 2 0.24213999509811401 -0.43126401305198669 0.86912602186203003 255 102 51
-428.5390625 -126.0224533081055 39.317501068115227 -1 3 -0.078744001686573029 -0.96653199195861816 -0.24416099488735199 0 143 0
-432.4091796875 -114.90977478027339 38.480903625488281 -1 1 0.92198902368545532 -0.38265100121498108 -0.059277001768350601 214 214 214
-416.0408935546875 -101.7374649047852 36.352901458740227 -1 0 -0.014488000422716141 -0.06695999950170517 0.99765002727508545 127 105 99
-437.50439453125 -135.47868347167969 40.719291687011719 -1 3 0.57749700546264648 -0.65125101804733276 0.49230998754501343 0 143 0
-437.23736572265619 -120.16346740722661 45.0694580078125 -1 2 0.29162499308586121 -0.38532999157905579 0.87548601627349854 255 102 51
-379.99832153320312 -139.1220397949219 44.649703979492188 -1 2 0.64905500411987305 0.65097498893737793 0.39364799857139587 255 102 51
-427.50064086914062 -92.263046264648438 43.875026702880859 -1 2 -0.046335000544786453 0.99885100126266479 -0.012219999916851521 255 102 51
-422.57867431640619 -126.9198913574219 38.927623748779297 -1 3 0.80211502313613892 -0.1818410009145737 0.56881099939346313 0 143 0
-431.93310546875 -137.42713928222659 43.906646728515618 -1 3 0.81445497274398804 0.0053820000030100354 0.58020198345184326 0 143 0
-435.02914428710938 -115.8030624389648 46.322811126708977 -1 2 0.8000829815864563 -0.5811769962310791 0.1486629992723465 255 102 51
-417.38528442382812 -96.719268798828125 37.266033172607422 -1 0 -0.3625200092792511 -0.014565000310540199 0.9318619966506958 127 105 99
-440.9320068359375 -114.76377868652339 49.468173980712891 -1 2 -0.46297499537467962 -0.34123298525810242 0.81805497407913208 255 102 51
-422.55593872070312 -127.43276214599609 40.640178680419922 -1 3 0.40334600210189819 0.88938099145889282 -0.2152069956064224 0 143 0
-437.076171875 -127.99354553222661 36.348274230957031 -1 0 -0.32003799080848688 0.35185301303863531 0.87964498996734619 127 105 99
-449.52911376953119 -117.60467529296881 47.306144714355469 -1 2 0.37852200865745539 0.62761801481246948 0.68030601739883423 255 102 51
-401.64251708984381 -120.59861755371089 48.416767120361328 -1 2 0.2417310029268265 -0.028953999280929569 0.96991097927093506 255 102 51
-420.29110717773438 -118.7243194580078 44.626113891601562 -1 2 -0.66900700330734253 -0.58597499132156372 0.45723399519920349 255 102 51
-432.7933349609375 -113.4383087158203 45.883220672607422 -1 2 0.49615499377250671 -0.56489497423171997 0.65933597087860107 255 102 51
-438.72073364257812 -110.77259826660161 49.5338134765625 -1 2 0.3186500072479248 0.33893999457359308 0.88520199060440063 255 102 51
-403.45269775390619 -116.5357666015625 42.121833801269531 -1 1 0.68795102834701538 0.725117027759552 0.03047600015997887 214 214 214
-438.34417724609381 -112.3862228393555 49.2374267578125 -1 2 0.41873401403427118 -0.3893829882144928 0.82039201259613037 255 102 51
-439.41543579101562 -104.08437347412109 43.315292358398438 -1 1 -0.14305600523948669 0.9503139853477478 -0.27647501230239868 214 214 214
-422.19873046875 -116.5212783813477 38.770881652832031 -1 1 -0.56004202365875244 -0.82735300064086914 -0.042902998626232147 214 214 214
-434.3095703125 -137.40043640136719 42.069446563720703 -1 3 -0.69419199228286743 0.42043301463127142 0.58423799276351929 0 143 0
-423.828125 -114.9374694824219 37.449932098388672 -1 0 -0.72707897424697876 -0.67506200075149536 0.12508900463581091 127 105 99
-438.07159423828119 -109.9729690551758 48.729526519775391 -1 2 -0.30344200134277338 0.47311800718307501 0.82709300518035889 255 102 51
-444.24502563476562 -111.3257598876953 47.145782470703118 -1 2 -0.26284399628639221 -0.19432300329208371 0.94506698846817017 255 102 51
-383.90591430664062 -131.73030090332031 36.203353881835938 -1 0 0.097445003688335419 0.1090599969029427 0.98924702405929565 127 105 99
-425.43801879882812 -123.8758850097656 43.892845153808587 -1 3 0.77666997909545898 -0.32615399360656738 0.53889501094818115 0 143 0
-407.84536743164062 -141.24189758300781 39.188411712646477 -1 3 0.66146701574325562 -0.28846800327301031 0.69227802753448486 0 143 0
-425.58145141601562 -147.09373474121091 40.573333740234382 3 3 -0.7595289945602417 -0.56498998403549194 0.32233801484107971 0 143 0
-427.52755737304688 -140.88719177246091 41.594390869140618 -1 3 0.75402200222015381 0.62349098920822144 0.20666499435901639 0 143 0
-409.696044921875 -139.09608459472659 39.742870330810547 -1 3 0.018446000292897221 0.99140697717666626 0.12950499355792999 0 143 0
-380.48989868164062 -141.57231140136719 47.853786468505859 -1 2 -0.6154400110244751 0.70396900177001953 0.35448798537254328 255 102 51
-409.355712890625 -116.626953125 48.594371795654297 2 2 -0.1117200031876564 0.098188996315002441 0.98887699842453003 255 102 51
-445.87057495117188 -113.03945159912109 46.296512603759773 -1 2 -0.36444699764251709 0.1112319976091385 0.92455697059631348 255 102 51
-398.91943359375 -129.9262390136719 49.751384735107422 2 2 0.27422299981117249 0.34691599011421198 0.89691197872161865 255 102 51
-440.95828247070312 -120.5161666870117 47.944297790527337 -1 2 0.60608398914337158 0.72532600164413452 0.32644298672676092 255 102 51
-427.624267578125 -105.138542175293 47.915409088134773 2 2 -0.39516401290893549 -0.44340300559997559 0.80451202392578125 255 102 51
-390.10211181640619 -147.77949523925781 42.781906127929688 -1 1 -0.66205400228500366 -0.69925302267074585 0.2696860134601593 214 214 214
-434.7529296875 -103.6391983032227 47.770740509033203 -1 2 -0.5154380202293396 0.29430800676345831 0.80480200052261353 255 102 51
-420.2838134765625 -98.844284057617188 45.784515380859382 -1 2 0.65282899141311646 0.70487898588180542 0.27741798758506769 255 102 51
-374.87661743164062 -141.25938415527341 36.306758880615227 0 0 -0.15472300350666049 -0.034164000302553177 0.98736697435379028 127 105 99
-439.93157958984381 -124.6210861206055 45.918094635009773 -1 2 0.87639302015304565 0.011288999579846861 0.48146399855613708 255 102 51
-372.172119140625 -149.20140075683591 46.181198120117188 -1 2 0.53932499885559082 0.61527001857757568 0.57495301961898804 255 102 51
-418.05694580078119 -120.984504699707 36.394981384277337 -1 0 0.1213840022683144 -0.15395799279212949 0.98059302568435669 127 105 99
-431.62973022460938 -137.51300048828119 40.451763153076172 -1 3 0.89623701572418213 0.31876900792121893 -0.30845698714256292 0 143 0
-374.12158203125 -147.95416259765619 48.272064208984382 -1 2 -0.35433399677276611 0.38488799333572388 0.85223698616027832 255 102 51
-372.05081176757812 -142.20265197753909 38.691360473632812 0 0 -0.39319700002670288 0.62942302227020264 0.67024099826812744 127 105 99
-425.22149658203119 -92.550910949707031 36.522270202636719 0 0 0.1499309986829758 -0.18923200666904449 0.97041898965835571 127 105 99
-406.6905517578125 -129.2521667480469 47.1080322265625 2 2 -0.64457398653030396 0.43527400493621832 0.62853902578353882 255 102 51
-401.17059326171881 -129.00764465332031 49.054538726806641 2 2 -0.46137300133705139 -0.46674999594688421 0.75450599193572998 255 102 51
-410.77926635742188 -104.84815979003911 36.327205657958977 -1 0 -0.13838000595569611 -0.046650998294353492 0.98927998542785645 127 105 99
-387.82266235351562 -150.45594787597659 36.36468505859375 -1 0 -0.47560301423072809 -0.33366400003433228 0.81392300128936768 127 105 99
-398.58950805664062 -137.12538146972659 46.636409759521477 2 2 -0.6229739785194397 -0.26180198788642878 0.73713201284408569 255 102 51
-429.78790283203119 -100.8766326904297 49.091682434082031 -1 2 0.80514299869537354 0.44213798642158508 0.39529600739479059 255 102 51
-446.31094360351562 -109.3159942626953 47.215885162353523 -1 1 -0.39329001307487488 -0.084224998950958252 0.91554898023605347 214 214 214
-429.15313720703119 -127.45147705078119 36.162643432617188 -1 0 -0.1122779995203018 0.002878000028431416 0.99367302656173706 127 105 99
-381.56741333007812 -150.04734802246091 48.289329528808587 2 2 -0.46954500675201422 0.56259602308273315 0.68045002222061157 255 102 51
-397.93887329101562 -140.49229431152341 45.011402130126953 -1 2 -0.54874497652053833 -0.51657700538635254 0.65728801488876343 255 102 51
-435.92001342773438 -135.17176818847659 39.302696228027337 -1 3 0.1635269969701767 -0.52451401948928833 0.83555001020431519 0 143 0
-403.31375122070312 -133.09291076660159 47.741912841796882 2 2 -0.68044698238372803 -0.66253197193145752 -0.31311801075935358 255 102 51
-380.0965576171875 -139.62908935546881 37.148258209228523 -1 0 0.67759799957275391 0.72954899072647095 0.092836998403072357 127 105 99
-423.30752563476562 -115.963020324707 44.538002014160163 -1 2 -0.83423501253128052 -0.54987198114395142 0.041134998202323907 255 102 51
-440.66290283203119 -119.7730255126953 47.188972473144531 -1 2 0.32080501317977911 -0.28539898991584778 0.90312302112579346 255 102 51
-394.349853515625 -143.92497253417969 36.452278137207031 -1 0 -0.5710260272026062 -0.46758198738098139 0.67475599050521851 127 105 99
-445.78738403320312 -109.3149795532227 40.106975555419922 -1 1 -0.61044102907180786 0.79193097352981567 0.014391999691724781 214 214 214
-450.49752807617188 -122.1592102050781 48.407680511474609 -1 2 -0.43403899669647222 0.39702099561691279 0.80869299173355103 255 102 51
-448.34341430664062 -132.16090393066409 46.365207672119141 -1 2 -0.086827002465724945 0.26892200112342829 0.95924001932144165 255 102 51
-420.50634765625 -118.2215270996094 37.748527526855469 -1 0 -0.71199798583984375 -0.70215201377868652 0.0063840001821517944 127 105 99
-386.5316162109375 -133.08653259277341 41.851554870605469 -1 1 0.66984099149703979 0.74142897129058838 0.039955999702215188 214 214 214
-392.705322265625 -145.8660888671875 44.606159210205078 -1 2 -0.7445639967918396 -0.64898902177810669 0.15632699429988861 255 102 51
-383.95791625976562 -138.43290710449219 46.514408111572273 -1 2 0.61717897653579712 0.2063419967889786 0.75928401947021484 255 102 51
-425.49447631835938 -148.11534118652341 38.891216278076172 -1 3 -0.53959202766418457 -0.57128900289535522 0.61844098567962646 0 143 0
-432.19415283203119 -131.26544189453119 36.685916900634773 -1 0 0.047763999551534653 0.204463005065918 0.97770798206329346 127 105 99
-429.42507934570312 -110.17551422119141 47.696090698242188 -1 2 0.72258400917053223 -0.45049500465393072 0.52433401346206665 255 102 51
-447.34442138671881 -99.122543334960938 36.589393615722663 0 0 -0.047915000468492508 -0.024486999958753589 0.99855101108551025 127 105 99
-441.39901733398438 -105.83298492431641 41.298053741455078 -1 1 -0.77131199836730957 0.60079002380371094 -0.2100699990987778 214 214 214
-440.37213134765619 -121.1319274902344 46.851558685302727 -1 2 0.95637601613998413 0.13213099539279941 0.26055100560188288 255 102 51
-434.21218872070312 -115.0676803588867 45.990699768066413 -1 2 0.49808698892593378 -0.6553490161895752 0.56782698631286621 255 102 51
-436.54107666015619 -101.67262268066411 39.321269989013672 -1 1 -0.72626900672912598 0.68707001209259033 -0.021648000925779339 214 214 214
-422.93878173828119 -147.17674255371091 37.626228332519531 3 3 0.55008101463317871 -0.62912899255752563 -0.54918897151947021 0 143 0
-428.01889038085938 -123.0438613891602 46.160213470458977 -1 3 -0.21215400099754331 0.68208301067352295 0.69982397556304932 0 143 0
-400.35455322265619 -137.87446594238281 45.117397308349609 -1 2 -0.37672099471092219 -0.37501999735832209 0.8470190167427063 255 102 51
-437.35821533203119 -114.23085784912109 48.429950714111328 -1 2 0.45060399174690252 0.43472298979759222 0.77972602844238281 255 102 51
-419.01019287109381 -131.0630187988281 41.708690643310547 -1 3 0.17107799649238589 0.80303001403808594 0.57085502147674561 0 143 0
-416.74606323242188 -104.3040466308594 45.221641540527337 -1 2 0.33012199401855469 0.32433998584747309 0.88646697998046875 255 102 51
-384.98104858398438 -133.06455993652341 36.134868621826172 -1 0 0.15438200533390051 0.17630299925804141 0.97215402126312256 127 105 99
-418.20156860351562 -149.98265075683591 41.701690673828118 -1 3 0.82465499639511108 0.55673497915267944 0.099950999021530151 0 143 0
-443.83535766601562 -111.1658248901367 47.361637115478523 -1 2 -0.29666000604629522 -0.14270900189876559 0.94426000118255615 255 102 51
-425.287841796875 -90.046775817871094 36.633132934570312 0 0 0.47728800773620611 -0.56541699171066284 0.67268198728561401 127 105 99
-416.77798461914062 -95.263580322265625 36.321193695068359 -1 0 -0.030837999656796459 0.0026219999417662621 0.99952101707458496 127 105 99
-446.13436889648438 -118.61973571777339 50.6982421875 -1 2 0.47315698862075811 0.65038001537322998 0.59424597024917603 255 102 51
-403.37823486328119 -131.60554504394531 47.207351684570312 2 2 -0.82204902172088623 0.2332590073347092 0.51944798231124878 255 102 51
-420.03317260742188 -148.98283386230469 40.567768096923828 3 3 -0.050211001187562943 0.97229099273681641 0.22831900417804721 0 143 0
-415.98648071289062 -110.88132476806641 48.212055206298828 2 2 0.48122501373291021 0.43136999011039728 0.76311397552490234 255 102 51
-430.42999267578119 -142.96954345703119 38.744705200195312 3 3 -0.66790497303009033 -0.73977500200271606 0.081464000046253204 0 143 0
-406.8525390625 -133.66047668457031 36.55596923828125 -1 0 -0.58076798915863037 0.38633701205253601 0.71655601263046265 127 105 99
-437.328125 -115.4541397094727 48.1370849609375 -1 2 -0.56800597906112671 -0.53517597913742065 0.62526500225067139 255 102 51
-393.27865600585938 -134.57279968261719 48.994857788085938 2 2 0.42455598711967468 0.44491299986839289 0.78854602575302124 255 102 51
-413.5081787109375 -122.4158172607422 47.80584716796875 2 2 0.67298001050949097 -0.70641398429870605 0.21926400065422061 255 102 51
-437.71615600585938 -102.90692138671881 46.921157836914062 -1 2 -0.5833740234375 0.78505098819732666 0.2082529962062836 255 102 51
-447.16036987304688 -129.00862121582031 46.753646850585938 -1 2 0.20175899565219879 -0.60307997465133667 0.77174299955368042 255 102 51
-448.259033203125 -113.0489196777344 43.884029388427727 -1 1 -0.95829802751541138 0.19017200171947479 -0.21330499649047849 214 214 214
-424.14825439453119 -129.22026062011719 41.458881378173828 -1 3 -0.81067401170730591 -0.55492901802062988 0.18671299517154691 0 143 0
-446.89254760742188 -117.9674606323242 48.937332153320312 -1 2 0.48358699679374689 0.85285001993179321 0.1969529986381531 255 102 51
-404.48892211914062 -145.87611389160159 43.650989532470703 -1 3 0.1596300005912781 -0.91908401250839233 0.36028298735618591 0 143 0
-444.77392578125 -128.96296691894531 46.954998016357422 -1 2 0.70516097545623779 -0.44872498512268072 0.54899299144744873 255 102 51
-428.12310791015619 -136.774169921875 36.351192474365227 -1 0 -0.073251001536846161 0.061935000121593482 0.99538898468017578 127 105 99
-412.04684448242188 -133.78387451171881 36.576236724853523 -1 0 0.37544199824333191 0.36650899052619929 0.85130202770233154 127 105 99
-412.00103759765619 -137.9695739746094 36.766815185546882 -1 0 0.083452001214027405 -0.090383999049663544 0.99240398406982422 127 105 99
-396.89468383789062 -140.2247009277344 45.358745574951172 2 2 -0.38884800672531128 -0.71016198396682739 0.58691298961639404 255 102 51
-401.81887817382812 -130.90484619140619 48.579418182373047 2 2 -0.52114099264144897 0.44260099530220032 0.72973698377609253 255 102 51
-394.37973022460938 -141.3258056640625 48.192790985107422 2 2 0.38269099593162542 -0.46862500905990601 0.79620200395584106 255 102 51
-394.19320678710938 -139.98835754394531 48.654487609863281 2 2 -0.32840201258659357 0.33363199234008789 0.8836519718170166 255 102 51
-423.6458740234375 -95.416206359863281 45.585006713867188 -1 2 0.82377099990844727 0.56393802165985107 -0.058100000023841858 255 102 51
-429.05264282226562 -125.7501678466797 42.324424743652337 -1 3 -0.77232497930526733 -0.49994200468063349 0.39188298583030701 0 143 0
-440.26126098632812 -122.9135208129883 37.902091979980469 -1 1 0.86708897352218628 -0.47825801372528082 0.13937899470329279 214 214 214
-449.73654174804688 -127.2841262817383 50.452129364013672 -1 2 -0.73831301927566528 0.45357200503349299 0.49916499853134161 255 102 51
-419.13442993164062 -112.8976211547852 49.219741821289062 2 2 -0.80998998880386353 0.54979997873306274 0.2040469944477081 255 102 51
-439.2496337890625 -126.48377990722661 36.286029815673828 -1 0 0.0072260000742971897 0.01295400038361549 0.9998900294303894 127 105 99
-442.74713134765619 -119.86940765380859 48.564743041992188 -1 2 0.01870699971914291 0.05914200097322464 0.9980739951133728 255 102 51
-367.95315551757812 -143.0918273925781 36.497829437255859 0 0 0.57464998960494995 0.21342200040817261 0.79008197784423828 127 105 99
-442.06011962890619 -126.46156311035161 41.610942840576172 -1 1 0.62437599897384644 -0.69056797027587891 0.36506301164627081 214 214 214
-384.80416870117188 -134.8211975097656 36.571685791015618 -1 0 0.56847298145294189 0.67900198698043823 0.46453699469566351 127 105 99
-414.97412109375 -136.69581604003909 40.894031524658203 -1 3 -0.82083797454833984 0.51779502630233765 0.24106599390506739 0 143 0
-426.20700073242188 -90.147285461425781 36.638835906982422 0 0 -0.17113000154495239 -0.53636997938156128 0.82645100355148315 127 105 99
-439.23703002929688 -122.6248245239258 36.281898498535163 -1 0 0.45155298709869379 -0.30305999517440801 0.83919799327850342 127 105 99
-445.60018920898438 -130.4099426269531 40.983158111572273 -1 1 0.69444602727890015 -0.71950799226760864 0.0072699999436736107 214 214 214
-389.7271728515625 -130.07127380371091 42.356349945068359 -1 1 0.78129500150680542 0.584617018699646 0.21863800287246701 214 214 214
-375.4158935546875 -143.4941711425781 44.579620361328118 -1 2 0.6610419750213623 0.71053701639175415 0.24116399884223941 255 102 51
-428.60250854492188 -92.733535766601562 37.033443450927727 -1 0 -0.38404598832130432 0.25954800844192499 0.88608300685882568 127 105 99
-448.2525634765625 -111.97357177734381 37.222492218017578 -1 0 -0.92090499401092529 0.11285799741745001 0.37309101223945618 127 105 99
-402.4942626953125 -133.0372009277344 48.177036285400391 2 2 0.42590600252151489 -0.48103499412536621 0.76629602909088135 255 102 51
-380.46505737304688 -141.3986511230469 46.486652374267578 -1 2 0.12988899648189539 0.89314299821853638 0.43061000108718872 255 102 51
-407.15689086914062 -137.7157897949219 37.619190216064453 -1 0 0.029843999072909359 -0.52443897724151611 0.8509250283241272 127 105 99
-410.49530029296881 -124.23325347900391 48.376533508300781 2 2 0.45017001032829279 -0.47125199437141418 0.75846397876739502 255 102 51
-426.78366088867188 -112.32651519775391 36.322563171386719 -1 0 -0.2462510019540787 -0.20346400141716001 0.94760900735855103 127 105 99
-448.7657470703125 -121.295654296875 48.9141845703125 -1 2 -0.44538798928260798 0.44258901476860052 0.77829599380493164 255 102 51
-427.0899658203125 -127.0269317626953 36.316303253173828 -1 0 0.17009900510311129 -0.14026500284671781 0.97539299726486206 127 105 99
-399.43991088867188 -117.47275543212891 36.435756683349609 -1 0 -0.1244530007243156 -0.048222001641988747 0.99105298519134521 127 105 99
-418.38717651367188 -129.26788330078119 37.243003845214837 -1 0 0.1768739968538284 0.30302399396896362 0.93642497062683105 127 105 99
-378.03521728515619 -141.6677551269531 37.920497894287109 -1 1 0.58515900373458862 0.80795902013778687 0.069222003221511841 214 214 214
-410.97415161132812 -142.15374755859381 36.957908630371087 -1 0 -0.38490501046180731 -0.65090000629425049 0.65435200929641724 127 105 99
-397.0101318359375 -132.85551452636719 49.147708892822273 2 2 -0.49879899621009832 -0.48675200343132019 0.71712797880172729 255 102 51
-443.32537841796881 -125.8129043579102 46.464912414550781 -1 2 0.60085797309875488 -0.01885299943387508 0.7991340160369873 255 102 51
-425.87957763671881 -102.5611038208008 49.144252777099609 2 2 0.86692702770233154 -0.28286999464035029 0.41039198637008673 255 102 51
-446.24703979492188 -117.3413543701172 48.74627685546875 -1 2 -0.20527499914169309 0.76546001434326172 0.60986298322677612 255 102 51
-394.11068725585938 -135.56654357910159 49.306304931640618 2 2 -0.59728997945785522 -0.30344599485397339 0.7424049973487854 255 102 51
-409.22039794921881 -105.76939392089839 36.277175903320312 -1 0 -0.12059500068426129 -0.1547569930553436 0.98056501150131226 127 105 99
-414.01675415039062 -119.0465774536133 49.968429565429688 2 2 0.30608499050140381 -0.95185798406600952 -0.0166619997471571 255 102 51
-438.14236450195312 -134.49542236328119 36.790237426757812 -1 0 -0.60813599824905396 -0.79139399528503418 0.062182001769542687 127 105 99
-426.8079833984375 -143.42408752441409 37.419033050537109 -1 3 -0.24697299301624301 0.36451798677444458 0.89784801006317139 0 143 0
-409.09002685546881 -107.6455917358398 36.405300140380859 -1 0 0.046422999352216721 -0.19309300184249881 0.98008197546005249 127 105 99
-412.62539672851562 -136.53370666503909 37.453971862792969 -1 0 0.46555799245834351 -0.8331030011177063 0.2986539900302887 127 105 99
-422.06137084960938 -114.46070861816411 46.175174713134773 2 2 -0.26871600747108459 -0.85559099912643433 0.44244301319122309 255 102 51
-427.28118896484381 -142.38116455078119 37.693294525146477 3 3 0.79943197965621948 -0.47691899538040161 0.36531698703765869 0 143 0
-409.57666015625 -140.535888671875 42.662273406982422 -1 3 0.59806197881698608 0.5716019868850708 0.56177598237991333 0 143 0
-417.78750610351562 -133.74342346191409 36.426288604736328 -1 3 0.01679199934005737 -0.22038799524307251 0.97526800632476807 0 143 0
-447.55795288085938 -119.33718109130859 48.6400146484375 -1 2 -0.75411397218704224 0.1124690026044846 0.64704102277755737 255 102 51
-447.0423583984375 -129.90864562988281 46.296455383300781 -1 2 0.095781996846199036 0.054099000990390778 0.99393099546432495 255 102 51
-444.72808837890619 -110.807014465332 47.293769836425781 -1 2 -0.21487399935722351 -0.29556798934936518 0.93084299564361572 255 102 51
-404.70068359375 -126.3448104858398 48.917751312255859 2 2 -0.31173199415206909 -0.89163398742675781 0.32834699749946589 255 102 51
-441.59921264648438 -103.26747894287109 36.451339721679688 -1 0 0.14246200025081629 0.057787999510765083 0.98811197280883789 127 105 99
-434.6744384765625 -117.23935699462891 37.450874328613281 -1 0 0.73618698120117188 -0.67587602138519287 0.03493800014257431 127 105 99
-430.48147583007812 -111.9722900390625 45.585323333740227 -1 2 0.40996900200843811 -0.33806499838829041 0.84713500738143921 255 102 51
-382.96432495117188 -146.0873107910156 49.579708099365227 2 2 -0.37058401107788091 -0.34232500195503229 0.86341297626495361 255 102 51
-375.96795654296881 -143.5848388671875 38.824165344238281 -1 1 0.82204997539520264 0.569100022315979 -0.018955999985337261 214 214 214
-446.37179565429688 -130.83937072753909 41.369480133056641 -1 1 0.68748998641967773 -0.69716900587081909 0.2032549977302551 214 214 214
-413.10922241210938 -125.1208038330078 40.112144470214837 -1 1 -0.54304498434066772 -0.8249019980430603 -0.15696500241756439 214 214 214
-431.6712646484375 -114.931510925293 36.412338256835938 -1 0 0.43587398529052729 -0.47002699971199041 0.76752102375030518 127 105 99
-423.70083618164062 -143.645751953125 39.065177917480469 3 3 0.1524620056152344 0.98048502206802368 -0.1241149976849556 0 143 0
-401.08889770507812 -112.3351364135742 36.465591430664062 -1 0 -0.17555199563503271 -0.125668004155159 0.97641599178314209 127 105 99
-398.64425659179688 -136.3453063964844 46.842361450195312 2 2 -0.46842199563980103 -0.24209299683570859 0.8496900200843811 255 102 51
-389.92080688476562 -142.90025329589841 47.639175415039062 2 2 0.03014799952507019 -0.70925301313400269 0.70430898666381836 255 102 51
-389.51446533203119 -129.59541320800781 44.614151000976562 -1 2 0.63465398550033569 0.75550001859664917 0.1625850051641464 255 102 51
-441.93878173828119 -121.8863525390625 46.551002502441413 -1 2 -0.27324700355529791 -0.52816897630691528 0.8039739727973938 255 102 51
-440.71640014648438 -136.77702331542969 36.047389984130859 -1 0 -0.15634599328041079 0.21745699644088751 0.96346700191497803 127 105 99
-437.89324951171881 -121.2900695800781 36.326351165771477 -1 0 0.58599501848220825 -0.25304600596427917 0.76979100704193115 127 105 99
-418.94915771484381 -113.62828063964839 49.800888061523438 2 2 0.44420000910758972 -0.89272797107696533 -0.075650997459888458 255 102 51
-429.1268310546875 -150.23735046386719 36.308769226074219 -1 0 0.52549898624420166 -0.35988900065422058 0.77092897891998291 127 105 99
-403.71322631835938 -125.4375915527344 49.784584045410163 2 2 0.60940498113632202 0.37380701303482061 0.69920897483825684 255 102 51
-424.16268920898438 -89.348228454589844 36.857280731201172 0 0 -0.74132001399993896 0.58564502000808716 0.32781800627708441 127 105 99
-440.26724243164062 -104.113525390625 42.565090179443359 -1 1 0.19483700394630429 0.96493101119995117 -0.17591400444507599 214 214 214
-409.49652099609381 -110.8401641845703 43.008739471435547 -1 1 0.78748500347137451 0.60846501588821411 -0.098174996674060822 214 214 214
-399.20559692382812 -138.85173034667969 45.181480407714837 -1 2 -0.248988002538681 -0.23863500356674189 0.93864697217941284 255 102 51
-446.24075317382812 -108.7554092407227 47.205394744873047 -1 1 -0.63181102275848389 0.64661502838134766 0.42743900418281561 214 214 214
-371.67596435546881 -146.9300231933594 36.926231384277337 -1 0 0.30363300442695618 -0.73123198747634888 0.61082500219345093 127 105 99
-406.81231689453119 -131.75645446777341 44.23846435546875 -1 2 -0.67036497592926025 -0.69368600845336914 -0.2634580135345459 255 102 51
-396.64596557617188 -141.28926086425781 38.050319671630859 -1 1 -0.53515702486038208 -0.84461498260498047 0.01523900032043457 214 214 214
-423.83273315429688 -97.662391662597656 48.276088714599609 -1 2 0.1405940055847168 0.34223601222038269 0.92903602123260498 255 102 51
-412.96127319335938 -121.6322784423828 47.397327423095703 2 2 0.71098601818084717 -0.70228999853134155 0.035882998257875443 255 102 51
-423.2080078125 -129.00953674316409 36.600811004638672 -1 0 -0.10710699856281281 -0.562034010887146 0.82015001773834229 127 105 99
-431.35018920898438 -111.0348587036133 46.426868438720703 -1 2 -0.26870200037956238 -0.70992600917816162 0.65100300312042236 255 102 51
-425.41873168945312 -143.567138671875 36.548042297363281 -1 3 0.086042001843452454 0.27749601006507868 0.95686602592468262 0 143 0
-403.25299072265619 -121.7617950439453 48.566165924072273 2 2 0.21537899971008301 -0.25868698954582209 0.94164401292800903 255 102 51
-392.7386474609375 -145.0889587402344 42.958820343017578 -1 1 -0.72597098350524902 -0.68648499250411987 0.041278999298810959 214 214 214
-414.12387084960938 -134.8919372558594 39.408767700195312 -1 3 -0.023417999967932701 0.98059099912643433 -0.19465899467468259 0 143 0
-374.25149536132812 -143.3070373535156 37.194972991943359 0 0 -0.6336359977722168 -0.052948001772165298 0.77181702852249146 127 105 99
-448.6488037109375 -120.30796051025391 48.382637023925781 -1 2 -0.44930198788642878 0.32820901274681091 0.83090698719024658 255 102 51
-420.72735595703119 -132.3448486328125 37.489543914794922 -1 3 -0.82312798500061035 -0.3946860134601593 0.40826699137687678 0 143 0
-373.38241577148438 -142.41767883300781 37.691181182861328 0 0 -0.69990897178649902 -0.008320000022649765 0.71418297290802002 127 105 99
-428.913818359375 -109.43918609619141 49.033809661865227 -1 2 0.97395700216293335 0.22252899408340451 -0.043457001447677612 255 102 51
-419.28289794921881 -130.6759033203125 39.6009521484375 -1 3 0.059654001146554947 0.99283701181411743 -0.10351999849081039 0 143 0
-381.32876586914062 -148.4180908203125 49.130928039550781 2 2 -0.34369200468063349 -0.47838300466537481 0.80809998512268066 255 102 51
-419.5030517578125 -94.231971740722656 36.173545837402337 -1 0 -0.16694000363349909 0.0068689999170601368 0.9859430193901062 127 105 99
-449.54266357421881 -119.85682678222661 47.707466125488281 -1 2 -0.63466298580169678 0.046824000775814063 0.77136898040771484 255 102 51
-392.63153076171881 -127.1317901611328 43.546535491943359 -1 1 0.70326602458953857 0.64681100845336914 -0.29504600167274481 214 214 214
-426.56991577148438 -126.26231384277339 43.714462280273438 -1 3 0.1916339993476868 -0.97241801023483276 0.1329620033502579 0 143 0
-425.78598022460938 -94.184906005859375 39.638072967529297 -1 1 0.67014598846435547 0.73311597108840942 -0.1159550026059151 214 214 214
-415.98834228515619 -122.33074951171881 45.159198760986328 -1 2 -0.30430099368095398 -0.3065980076789856 0.901885986328125 255 102 51
-373.4244384765625 -149.36669921875 46.988239288330078 -1 2 0.77557897567749023 -0.61584800481796265 0.13859499990940091 255 102 51
-405.80389404296881 -132.38444519042969 36.714763641357422 -1 0 -0.33350801467895508 -0.85880500078201294 0.38887900114059448 127 105 99
-393.8616943359375 -144.14024353027341 37.471004486083977 -1 0 -0.6608549952507019 -0.74657702445983887 0.076768003404140472 127 105 99
-440.16531372070312 -130.49871826171881 36.252326965332031 -1 0 -0.42760199308395391 0.64337700605392456 0.63499802350997925 127 105 99
-438.25283813476562 -121.8805236816406 44.384479522705078 -1 2 0.73057699203491211 -0.68112200498580933 -0.048269998282194138 255 102 51
-429.9373779296875 -94.708213806152344 40.626972198486328 -1 1 -0.71497899293899536 0.69911700487136841 -0.0064249997958540916 214 214 214
-410.23199462890619 -123.2769241333008 48.688220977783203 2 2 -0.1155019998550415 0.068479001522064209 0.9909440279006958 255 102 51
-391.67916870117188 -128.26817321777341 36.945873260498047 -1 0 0.69369602203369141 0.70820999145507812 0.13124099373817441 127 105 99
-438.09115600585938 -103.1878356933594 46.321990966796882 -1 1 -0.70395100116729736 0.45094200968742371 0.54872900247573853 214 214 214
-371.48910522460938 -145.9073486328125 38.826152801513672 -1 0 -0.20845699310302729 -0.31798401474952698 0.9248960018157959 127 105 99
-428.81393432617188 -124.9552383422852 45.438533782958977 -1 3 -0.491923987865448 -0.67832797765731812 0.54578602313995361 0 143 0
-372.74191284179688 -146.3132629394531 44.773853302001953 -1 2 0.67076402902603149 0.58421999216079712 0.45690500736236572 255 102 51
-424.32345581054688 -102.7610321044922 48.218807220458977 2 2 0.47295099496841431 0.26542600989341741 0.84015899896621704 255 102 51
-409.98980712890619 -110.67429351806641 45.157318115234382 -1 1 0.27913901209831238 0.236163005232811 0.93075698614120483 214 214 214
-433.4814453125 -105.93878173828119 49.233734130859382 -1 2 -0.79506599903106689 -0.19762200117111209 0.57342398166656494 255 102 51
-410.73956298828119 -133.88459777832031 37.578704833984382 -1 0 -0.31723299622535711 0.0051040002144873142 0.9483339786529541 127 105 99
-416.59918212890619 -119.8364639282227 46.896488189697273 2 2 0.22406600415706629 -0.97439301013946533 0.01879999972879887 255 102 51
-437.08816528320312 -132.7649230957031 45.053237915039062 -1 3 0.37332999706268311 0.36692100763320917 0.85205298662185669 0 143 0
-421.080078125 -149.9627990722656 41.211986541748047 3 3 -0.93555700778961182 0.34213501214981079 0.087610997259616852 0 143 0
-431.80886840820312 -110.55938720703119 46.98809814453125 -1 2 -0.4656279981136322 -0.83243101835250854 0.30041599273681641 255 102 51
-435.93243408203119 -119.2610168457031 43.200187683105469 -1 1 0.70124298334121704 -0.68986701965332031 -0.1798370033502579 214 214 214
-406.220947265625 -137.25172424316409 36.213165283203118 -1 0 0.45303300023078918 -0.1388719975948334 0.88061100244522095 127 105 99
-406.91781616210938 -149.07489013671881 36.465129852294922 -1 0 -0.077294997870922089 -0.071382999420166016 0.99444997310638428 127 105 99
-426.46109008789062 -93.3167724609375 37.027740478515618 -1 0 0.78877902030944824 0.49392101168632507 0.3658829927444458 127 105 99
