-82.5162 -93.5231 65.5662
81.2119 -128.152 81.0902
88.3811 -72.4232 33.1784
31.6975 -56.3586 81.1235
-10.8987 -30.819 -9.04037
7.64963 -0.690654 -18.5383
-50.273 -23.5847 -58.378
15.5459 -31.1778 41.092
-76.3797 14.88 12.0908
18.2778 -83.07 -28.7116
39.7942 -69.9571 15.0606
1.53445 -84.0482 17.2785
-19.4764 -92.7624 86.3707
-93.7226 6.01073 -5.25966
85.3036 -77.1633 -66.2424
-35.8524 3.57391 88.9288
32.4384 -109.131 36.6271
56.4629 -22.4714 -24.7862
-8.99054 -4.75615 -30.9302
93.3325 -66.0478 25.3859
-49.6804 -111.202 97.4373
55.9425 -35.0513 -27.4206
-35.9703 -124.659 17.2646
-51.114 -119.951 0.477437
31.9308 19.0272 63.8815
47.217 -82.8621 44.1702
34.9156 16.4667 69.2132
-35.4986 -16.1862 18.2475
25.85 -97.9291 -11.4599
80.372 -102.93 65.2828
-2.53262 -65.19 87.8402
-5.38007 -98.2331 21.7787
53.0415 -50.2109 28.1884
-38.8868 -13.5464 40.2477
50.5326 -64.5982 39.0803
10.4009 -104.185 95.6458
-51.6322 -2.99874 91.4058
-85.8398 -104.623 47.9824
23.324 -10.2352 86.4675
99.4797 -24.9563 -61.0482
60.905 -101.856 16.7238
47.3941 -30.8908 54.844
-39.5185 -66.1096 -29.409
80.6908 -20.2747 -69.6647
14.2994 -57.3753 8.81743
-53.3892 -124.575 39.7949
-58.2272 -88.2988 12.1964
-67.7763 -77.6787 42.6491
74.4263 14.8144 6.3668
59.3901 14.4241 -47.5807
80.4477 -14.8972 -13.8076
-12.0814 -54.3516 -74.8765
-62.2547 -8.99049 1.79193
-6.04254 -23.4724 -46.5377
5.44115 -87.7479 40.6119
-95.8728 -52.7898 47.1224
37.2326 -21.4602 97.1639
-60.327 2.70759 -20.0505
75.9497 -16.4727 -26.2733
-28.0872 -46.9301 -32.9643
7.93428 -61.5943 -74.8409
81.4814 4.34463 15.9372
87.1742 -117.346 -18.8514
-21.9459 -46.8783 -71.0183
15.2344 -117.797 -20.3158
-50.7523 -114.702 72.3365
90.4948 -11.7776 22.5843
87.3436 17.9771 1.8334
-46.0458 -0.0606065 -41.9338
13.6506 -96.126 57.7501
65.9124 -15.1753 -40.1631
71.6448 -29.0642 -58.9496
-21.7584 -38.6835 -43.7653
46.1845 19.8571 55.9808
56.1642 -43.7171 70.6238
-77.52 -6.78133 88.9814
91.7428 -13.9102 50.8482
5.72533 -23.4025 48.4207
96.6513 17.0632 24.348
-61.0529 -47.6989 64.9968
92.0027 -73.2646 22.7865
-63.7341 -94.531 -36.0905
-40.3447 -35.8498 73.4892
-0.0839058 -76.2114 73.3177
-48.9942 -109.088 -3.14283
-81.6343 -92.2282 -35.2804
-93.8773 -98.4211 -75.9727
51.5096 -19.1271 51.9444
-5.80072 -21.6386 48.4202
-89.8585 7.57167 -32.8185
71.249 1.57369 35.264
-14.5437 -121.227 77.8268
34.2446 -76.4854 10.8071
4.78813 -1.54837 75.3535
-24.8589 -113.294 -79.5524
60.538 -99.5197 -34.2263
-89.7736 -94.9277 3.66839
-85.2988 18.7045 -43.2842
61.3061 -60.646 86.7495
3.99515 -53.0399 71.8355
56.419 -74.6031 49.7239
-15.5099 -10.511 60.2516
-40.1467 -59.8275 -55.5309
60.75 18.7636 98.6111
33.365 -74.8806 -61.3417
33.8623 -104.477 -24.7654
84.7221 -96.8073 17.3213
-22.3131 -85.7814 15.7667
18.4823 -114.802 98.9915
3.75952 -36.8054 11.3436
-27.5344 -69.4912 77.8198
-83.3967 -6.12358 41.2067
72.4385 -111.234 -54.5864
99.6264 9.3289 -56.0701
98.0831 -40.6473 10.0732
-81.1855 -90.2506 40.7007
-19.8137 -101.709 80.5319
88.3211 -43.4438 -46.4057
-5.27141 -104.582 -28.1679
-6.39196 -26.7624 83.6656
95.1009 -122.413 -23.7238
70.4563 -109.961 -55.0721
5.13034 19.3681 -32.5525
33.3677 19.0879 -45.3578
59.9565 17.6502 61.8654
-39.9622 -118.239 -70.4353
94.1496 -58.0992 -36.4861
72.5184 -66.8584 67.3813
-90.1546 4.18804 97.8828
-32.5633 -75.6059 41.7679
-50.7126 -79.2802 50.872
11.8165 -101.438 74.9191
39.5141 -22.5903 74.1608
92.2336 -72.5645 73.0663
-69.275 -102.597 70.2465
88.3532 -57.5689 84.3598
98.9807 -61.9567 -9.35922
-52.6706 -82.5678 66.4107
-88.9136 -75.1838 47.4363
-91.266 -24.6062 -67.2908
44.0316 12.3593 -6.42708
-10.555 -53.7783 27.8473
-38.4227 -99.1427 -23.2611
-67.1328 -104.968 45.6615
-97.0592 -81.9238 78.5448
69.8814 -90.6588 -14.5378
52.5035 -91.4233 67.1142
-69.0068 -55.9262 -55.9672
93.6718 -47.6114 9.81229
35.2677 -41.0609 -43.7152
49.3891 -83.0372 -52.884
-68.8632 -15.9535 38.582
50.9671 -119.77 75.6107
-85.9897 -95.1201 -74.3503
53.6341 -92.9144 -16.6588
29.7951 -115.503 30.5506
-97.4692 -1.12575 76.8426
65.991 -127.881 -14.2689
92.6941 17.373 84.5974
-7.51442 -31.1762 11.3243
32.8021 -69.1344 67.6797
62.9309 -45.7818 24.5355
-5.31127 -82.5565 36.811
-32.4104 -72.0488 78.6669
-26.133 -106.823 -56.8305
44.2462 -9.47689 -39.4345
-32.9198 -7.57878 -64.7854
-58.6503 -33.0855 -62.2424
14.3843 -38.5649 -65.3948
-2.72968 -119.201 53.1938
98.7418 -19.5992 -53.7675
62.8303 -47.401 47.2944
-21.0192 -126.384 -75.7734
-91.2292 -75.6923 -6.23197
85.0673 -20.292 21.5802
-89.1888 -62.1073 -13.7921
-44.116 -11.7972 -46.8866
-27.211 19.2151 69.4108
-7.4803 -44.9967 -0.867079
8.7477 -122.044 12.0921
-43.2592 -122.988 -35.427
-14.112 -0.864915 63.6919
-72.6738 -91.6293 68.0306
-67.9776 -85.0512 -46.8001
13.9869 -96.2508 84.8495
-73.1462 -88.1424 -13.6793
0.418155 -46.2294 -51.836
37.2108 8.3624 -52.7779
3.22283 -72.2478 49.2261
91.1483 9.31295 58.7734
-6.52719 -98.1315 67.1882
42.9984 -33.7154 42.1503
2.65606 -13.2208 88.1952
-32.8655 10.796 -37.8663
4.02323 -53.7138 2.63283
-12.8107 -33.5735 52.862
60.879 -108.26 -26.6133
92.1724 -5.35173 -40.5784
-77.5808 -77.9346 28.7242
66.0037 -84.5734 15.8998
20.1964 -14.4688 54.142
-16.2611 -57.22 -10.3165
-80.5385 19.7721 -50.1815
-93.655 -79.8771 -61.2262
-46.8397 -1.85965 30.3172
44.9745 -86.4676 -33.9709
-7.40103 -115.808 -7.88276
51.9176 -121.679 -38.3048
95.7194 -104.865 24.1736
16.5241 19.6381 78.6856
-76.9207 -40.2146 37.323
72.126 -127.41 -55.3409
-50.4479 -112.814 -55.6144
-17.3162 -108.056 4.53307
3.54357 -68.1854 -21.6985
-73.8817 -109.455 30.5403
-22.7383 -40.0053 47.5702
57.3919 -76.0671 57.5553
-96.2801 -79.2776 87.7176
19.4684 8.11544 87.2833
-4.21432 -124.575 15.0257
-73.8554 4.51944 18.1331
-46.4564 -108.316 38.7559
-19.3614 -46.3036 65.0891
74.5643 -118.646 -40.7334
-60.6563 -99.0573 -16.0788
62.1663 -41.111 91.9148
3.91101 -73.0671 -23.3657
-43.2498 -70.2771 37.5012
-56.8969 19.3241 23.2397
-71.0265 -58.8366 29.7496
34.5576 -39.2281 11.173
-56.4056 0.92954 37.1932
75.5454 -88.5915 -42.3712
36.7555 -107.668 -28.7464
80.3851 -78.1605 8.38489
-48.5913 -106.536 -64.9483
-57.5748 -28.6025 3.37118
5.35216 13.9602 75.0386
-64.091 -103.712 74.2276
50.6198 -81.9824 -20.3763
-27.4362 18.9358 88.5499
73.8671 -98.3684 65.6653
4.08174 -116.709 -64.6444
45.8915 -14.1427 -37.8464
-97.16 -28.8539 24.361
1.04541 9.70265 52.5181
17.7695 -108.478 -5.80491
-89.5959 -29.4644 -13.0527
82.6692 -2.53259 18.4923
54.0332 -39.5677 76.1134
-79.7183 14.8551 74.8364
-92.4406 -4.74454 -67.2057
69.4097 -76.6832 -51.2569
86.4714 -117.265 87.7719
-66.6912 -115.135 29.1473
49.2655 -39.3506 16.7904
-3.49214 -101.023 42.6163
78.9468 -93.2204 -16.741
-46.6673 -106.218 -43.7801
62.7686 9.30648 64.7386
36.228 -125.482 58.5648
8.26841 -119.813 28.8713
22.4843 7.24456 92.8515
54.4212 -2.90186 -71.8661
40.8344 -127.92 -54.0276
-37.8909 -15.9711 54.7517
69.654 -93.5902 89.5235
5.89434 -109.38 -46.3409
76.1822 -69.3806 -17.803
-83.5735 -97.3041 -30.6352
77.2473 4.86687 -25.2139
31.2081 -63.9318 -12.9892
-47.8237 -122.069 -28.2957
-55.7666 -6.2527 -55.778
-46.7289 -50.6269 -53.2823
-17.8707 -4.0451 83.5524
-68.1466 -26.8046 -52.7559
-79.7871 -97.3838 -28.012
-42.3881 -115.247 44.7314
26.7197 -102.927 83.9664
81.5694 -119.992 65.8067
-57.5572 -21.5857 -34.9115
16.8992 17.5465 -25.3938
74.3484 -99.2785 -56.8971
-98.7382 -59.3251 38.3506
-69.0518 2.2719 9.49653
-87.327 -123.838 -46.669
-57.0557 -108.678 -7.52953
0.708738 -65.4694 10.1738
-60.7009 -120.43 42.6611
-78.516 15.7474 54.6709
83.4914 -102.42 4.768
-66.4103 -14.7461 1.82375
-5.73672 -33.9848 38.6896
19.9332 -33.0384 -56.5005
-48.5661 -9.82731 -77.7742
50.8745 -0.322538 -70.3799
87.909 -118.114 -44.7939
-31.5682 -42.5828 32.6429
68.6249 -13.1084 44.1273
4.91504 3.0046 39.0242
-45.4506 -9.37682 72.1196
48.736 15.8155 30.4243
-60.3487 -63.4871 -34.3574
71.5286 -123.537 81.9965
97.6392 -84.9617 46.2037
-99.8877 -121.806 21.8167
-89.1987 19.126 36.0795
-50.0807 -79.5502 -39.0198
75.078 -103.082 -78.75
12.9972 -24.3952 80.8555
-54.7537 16.5168 45.6034
-85.7319 -21.9312 40.5819
36.9618 7.8073 -59.6025
87.6758 -13.5462 -51.8471
67.6719 -15.3168 2.19892
7.89825 -15.2326 12.032
-78.9721 -7.13163 10.9831
50.0051 -119.692 71.5229
95.5386 11.6163 -76.1749
96.9275 -53.6358 50.5508
75.6559 -19.701 46.371
15.2152 -8.99997 -3.94644
-50.8049 -56.2786 -18.5777
-28.141 -65.5218 -58.8331
3.14004 -89.7679 78.7867
94.4722 -8.8442 36.5075
-3.27008 6.92672 3.94959
97.8223 -30.5695 16.319
66.1811 -33.9155 6.25855
70.4312 -36.2199 97.8956
15.4877 -54.4779 50.2544
-44.1001 -118.067 15.4544
40.4038 -81.1702 -76.0799
-91.3491 -27.2759 1.29389
-67.8304 -99.9209 49.5724
-91.4007 -104.067 14.9594
38.0521 -31.5193 -0.728563
-68.6706 -33.1526 -61.4119
38.3505 -58.5168 53.8895
-65.8067 -80.6934 -13.5744
-68.1449 5.92238 77.0521
76.5822 -102.153 91.3723
-17.3574 3.15016 -30.0319
-13.0017 9.63831 93.2369
77.3248 -116.234 -50.6681
21.2942 -109.785 -19.5482
-73.1954 -6.24599 98.6286
14.884 17.251 34.8454
35.5374 -28.9861 -59.3747
-15.6965 -3.34114 -0.206742
58.1097 -129.45 -17.0999
32.6121 2.98682 16.3169
23.0257 -85.0312 -3.90295
78.5458 -19.7825 -16.337
71.0313 -36.7889 0.181634
-96.3778 -95.8183 24.4396
-29.2092 -75.7148 -7.05562
-30.733 10.4481 -10.3544
96.8731 -37.8988 -69.1377
-80.2099 -124.671 82.8529
8.44926 -6.08894 83.5132
78.3383 -56.6299 63.0974
-14.643 -114.361 -62.9401
69.9093 19.5487 69.3209
-59.354 -2.17784 1.17425
29.7367 0.538839 42.1923
-54.2194 -96.368 -72.6655
26.83 -44.4178 95.8723
-95.786 -46.7629 26.3937
-83.7168 -31.9204 32.7882
97.231 -100.583 1.48145
78.9123 -116.83 89.5256
37.9093 -52.812 -71.7071
56.8648 -75.38 -72.2487
22.7769 -44.8956 81.1379
-87.0295 -97.5931 57.7845
48.7398 -63.2576 98.1429
56.8892 -118.135 20.8416
52.3029 -114.975 -59.274
-29.482 -102.762 58.4216
95.8382 -104.839 93.7214
-13.6268 -120.655 -70.4742
-25.2651 -17.2228 22.1514
-16.0508 -49.5742 87.6953
-7.43821 -107.491 9.82066
-28.3961 -97.7636 48.709
-75.3022 13.7912 -51.2001
-77.3656 -18.5419 -36.9622
34.6806 -54.3147 -18.9317
57.7095 -1.42618 13.7537
11.5113 -4.5475 43.9469
4.53511 -89.7676 55.1612
15.1193 -33.7164 10.4939
-71.3792 -120.755 -72.9951
-85.051 -51.3332 -45.9849
14.7497 2.36977 -7.30121
-42.2403 -129.107 -14.7517
-10.2404 -112.131 -61.002
37.5794 -11.1206 29.8204
-94.567 -42.8385 4.10897
9.60376 -109.205 -25.348
-52.6774 -30.8037 22.9308
97.5017 -94.4642 -41.5289
-1.94948 -72.9986 -30.4343
5.83375 -61.7869 63.9659
43.6283 -125.725 42.8096
-75.5952 -82.4049 43.8814
-3.09718 -15.0852 65.3241
18.0117 -61.9007 27.9793
-59.9656 -57.8259 -47.4269
33.4888 -125.623 -22.473
94.2132 -90.1311 96.5626
8.58079 -92.0049 -40.7945
51.3265 -18.467 27.6071
-93.6005 -89.0916 -70.5372
66.3616 18.6296 -65.4068
2.81671 -113.067 -8.29264
-59.5373 -40.3897 -50.3949
-98.0661 -101.881 31.3244
21.9109 -71.8551 -62.0667
58.1032 -121.739 -56.8144
-77.9778 -126.079 -8.97178
-81.7972 -44.643 36.6224
-38.2356 -81.1482 -9.53795
81.3279 -76.3486 39.5521
91.8421 -101.577 37.9076
-91.9432 -24.4648 58.2274
-12.2683 5.88217 -14.2403
20.6263 7.33258 19.5026
-55.68 -51.2343 89.2764
-35.7541 -82.6568 99.1902
-9.99235 -66.1402 -76.1041
68.9279 -52.4881 26.3243
-1.49166 -6.16479 84.9465
76.7995 -20.1689 -30.6718
9.63514 -26.2873 3.43535
-59.3564 -20.2446 -49.9225
94.2295 -104.446 -66.8639
-32.7041 -13.9762 97.9352
77.8543 19.2638 12.4541
65.9392 -82.5518 69.2659
65.0395 -15.046 -34.1023
69.3682 -38.3501 58.9119
-12.4937 -114.469 27.5142
-29.2198 18.1308 -20.6885
25.5893 -49.6429 -76.2332
-81.7047 -19.1602 55.4733
-48.2853 -23.488 86.1382
-33.6896 -123.016 45.3668
-35.9837 10.3746 44.4834
66.7431 -15.171 -78.5788
32.5941 -41.3914 59.366
83.5915 -64.3652 -10.6541
37.938 1.2645 7.98324
-42.6018 -95.6504 5.74018
23.2999 -1.45838 -77.8313
27.4853 12.2631 55.1765
-21.9889 -98.9509 2.99085
-37.3909 -49.218 11.3715
-98.0945 -1.20585 -0.179053
40.2203 -26.1486 -42.3843
41.7995 -76.703 63.946
-3.34941 -89.0094 -37.2923
73.7016 14.4442 -59.7749
-28.5393 -92.5072 -18.5553
66.7276 -0.0322347 -44.3054
69.1373 -54.4183 -53.5897
19.3334 4.09004 -16.3307
-88.4545 -98.9531 80.6076
13.0693 -97.524 55.1606
-98.2407 7.64124 -0.217673
-56.4455 -36.0091 63.7388
-96.5055 -113.521 -67.0725
-49.0524 16.755 -73.7395
-26.5801 -79.6495 -28.7481
41.6918 -104.604 -52.7868
81.3525 -127.751 37.9113
-89.3027 -38.2508 18.8193
-18.559 -29.5917 56.0756
-40.1061 -94.7898 95.0468
-89.9277 -93.4703 80.2162
-1.28068 -60.8044 13.0053
-41.571 -58.1835 32.7798
-27.207 -19.9729 28.8858
-20.2509 -114.908 89.3064
36.6957 -8.63909 -60.2182
66.9326 -22.6247 -57.5192
-2.05486 -14.6017 52.5798
-92.2556 -103.521 -6.93031
58.9395 -58.6006 35.322
53.4359 -51.0464 79.1576
31.4539 -127.007 -17.8077
-65.2069 -83.1851 68.372
60.1041 -28.5904 20.4046
-18.9117 -118.779 38.515
-30.7935 -16.2568 4.14813
-8.81369 -41.0574 -47.0015
16.1649 -117.599 91.4765
-36.5242 -111.79 -56.7487
44.6643 7.41439 28.9306
-27.2001 -27.5087 -56.3251
-50.3583 -78.9183 -52.7333
18.7442 -52.8234 3.44458
-16.398 -82.7453 -54.8639
95.1626 -21.9291 -41.3982
26.846 -120.024 95.0937
-79.6561 -51.6345 21.8248
-42.9911 -114.511 36.7066
-52.4617 -66.904 58.5583
-26.6269 -108.406 43.4556
94.4071 -53.8058 -13.5549
-79.2874 -16.5746 47.7432
-48.9911 -77.5164 -39.6448
43.7251 -14.8149 17.0607
71.6541 -18.4429 -33.2542
-85.4549 -73.3084 -21.2833
-90.9064 -58.0505 72.7553
22.2323 -15.2938 91.3423
-48.0938 -129.64 -12.9424
-94.1401 -74.6103 12.9707
43.0328 -78.805 -75.5962
-83.1393 -63.2705 60.5143
58.7976 -25.0139 -56.5054
-96.3633 -67.22 81.7167
11.482 -88.4795 35.5852
63.4217 -77.5707 -76.3849
-71.3375 -70.7505 9.95449
98.3906 -129.076 -32.3981
88.771 -90.1466 -31.9662
-36.7206 -85.7517 34.5015
66.5803 -128.477 95.9356
71.4733 -115.832 -3.98904
27.6003 3.26667 -58.0057
53.7054 5.99419 17.3303
33.3907 -60.3943 67.1549
-38.1813 -87.8281 -49.9299
-34.1646 -66.3312 21.1696
65.7848 -67.5382 22.2781
-81.3241 -75.96 70.1021
-27.9532 -28.5004 -56.7999
99.2708 -53.5652 -54.9723
94.7548 -74.9602 -37.9702
-20.7886 -129.26 -58.0502
3.64952 -13.9808 -74.8572
-88.2057 -63.9378 8.66961
75.2997 -17.5738 59.2759
-91.289 -118.197 -44.3215
21.1216 6.14135 30.6327
-65.2361 -129.852 95.4807
-98.4559 -75.8166 37.2803
-72.678 -76.3636 -50.9979
-44.8695 -80.2975 15.0499
1.83031 -20.889 15.938
26.219 -93.1518 -24.839
31.9332 -84.3061 54.4355
-69.545 -102.831 9.34692
85.206 -96.2981 23.5102
-75.1512 -5.45683 6.87979
47.774 -129.384 7.05769
42.7526 -128.226 72.0777
-26.9359 -107.734 -43.5586
5.2886 -66.3864 16.0844
-89.1004 9.98634 -32.9823
17.4973 -45.3494 11.2355
78.7873 -96.3995 66.0681
28.1601 -73.5583 98.6705
-72.5656 -84.6537 -40.8871
42.4458 -66.0171 -71.4353
-61.0211 -105.187 -70.696
35.7096 1.87788 -68.567
4.68487 -93.3241 -41.8481
45.1754 -14.3576 34.4882
-48.0642 -6.18294 22.4718
4.17768 -68.06 -55.9475
-94.4496 -83.9695 -15.627
67.8484 12.1506 52.1031
66.3712 -117.274 -73.4814
-90.1701 -10.4393 3.2981
-80.6538 18.7949 33.0742
-70.316 -29.4229 11.3277
-57.6127 -100.909 55.3388
-15.2217 7.97226 14.1096
-88.0126 -103.076 -17.3099
25.8449 -24.9426 57.0181
52.5699 -20.7798 -67.7453
-75.9045 -44.8935 -77.1646
70.8768 -70.1151 -61.8929
78.1197 -62.7427 81.58
-29.3269 -48.233 80.1338
96.3111 -25.9701 20.8263
-2.21368 5.82043 55.7352
-51.8373 -80.5959 41.3019
52.729 -71.6053 73.6109
-77.6154 -127.222 19.6798
74.627 -12.7942 -29.256
88.2434 5.27748 72.8718
91.3938 -16.5649 -35.2663
-88.4871 -32.9752 45.4424
91.0462 -129.97 -36.4372
68.9726 17.263 88.3987
-18.9981 -59.3972 71.3832
-68.1812 -23.2752 -49.3318
66.5987 -58.7285 20.7418
37.2775 -41.94 24.0759
-51.9672 -60.9698 -15.2771
4.41507 -69.7872 -32.9441
-25.7274 -76.2419 -76.8221
23.9767 -67.6072 39.6077
-36.6428 -74.3226 39.6433
11.7603 -97.5931 36.359
-1.13008 -36.8417 -58.9177
-32.9265 -12.9776 69.1521
1.14925 -38.0285 -25.3221
-86.9154 -85.0704 80.3499
28.7245 -49.0458 -16.8138
-99.3612 -120.734 55.4415
-47.0769 -65.03 -60.0487
-43.5459 -122.047 14.8226
89.3515 -74.5296 81.6355
22.2886 9.29064 -59.4763
-48.4237 -66.5569 52.3137
-24.9989 -16.2518 12.7406
-59.2744 -90.3899 -56.8936
1.47882 -80.5764 -2.97801
-20.3546 15.9669 94.1671
49.8523 16.446 -74.7143
0.342813 -93.8617 3.24977
22.5109 -51.5211 12.7928
-72.1307 -59.5075 79.3574
-92.5357 -117.791 66.5061
-69.7315 -79.1088 -37.3622
77.2837 -22.858 99.1357
-19.6711 7.68618 -33.3321
6.00266 -66.2047 25.9762
91.5826 -6.47067 21.1365
85.1016 -44.0815 16.8717
90.9747 -118.824 60.2377
-16.5256 -26.9412 -25.5876
86.5776 -6.03922 59.0034
63.6413 -0.440991 73.6542
26.4259 -127.74 -45.2764
73.8013 5.22313 83.294
72.841 -84.5302 68.5174
-75.3059 -5.02824 -34.9282
42.4454 -11.3413 -66.693
-45.1807 -22.515 36.4092
62.4546 -29.284 49.8199
18.2743 -116.678 -6.50951
78.7325 -126.745 -37.7566
33.1808 -4.01407 -62.2858
3.90766 -59.1946 -59.5733
42.4895 -78.8437 -77.3056
23.9273 -99.2129 -22.7419
-11.0534 -80.6923 -52.7757
39.0264 -123.858 89.6147
53.8119 -82.7438 38.5967
-16.8446 -110.903 -20.5442
-72.6002 -22.1972 -4.55804
9.0559 -38.1478 -0.652114
55.9931 -88.2622 -29.469
75.6755 -10.3315 55.4974
98.3718 -53.4644 -63.1149
-98.6344 -110.519 -26.1705
-35.0142 -43.809 32.9987
-4.76503 -89.5392 40.3688
-16.3042 -124.18 97.0762
-84.5301 -61.8138 -60.0072
-18.468 -41.2639 69.3562
65.3564 -109.472 -0.421218
-46.4793 7.52281 49.6641
9.66622 -10.7205 13.2663
-39.7811 -11.9416 -74.891
-21.0199 -10.9174 -51.5137
38.7907 -112.178 51.9155
-35.6551 -40.7518 -79.5316
98.0879 -127.98 -72.548
94.8393 -116.378 9.27551
-82.9465 -55.2286 -64.2412
83.0048 -81.2113 -39.6075
-28.5743 -41.0708 -54.5802
-84.5031 -108.821 88.5552
19.1261 -63.657 50.2252
24.8028 -4.42187 13.1243
56.4542 -50.3288 34.5106
3.0269 -2.0702 -38.3916
3.54734 -3.50424 -35.9675
11.8274 -7.37476 -19.6206
-88.9776 5.41537 70.1051
-71.4678 -7.33104 -51.3485
-26.5873 -103.762 55.3665
1.65694 -92.1392 80.7811
-11.0595 -2.7946 -19.6072
-66.3648 -59.1925 -48.9135
37.1066 -91.8519 46.6919
-35.6593 -14.5817 20.2077
10.5723 -86.9212 -7.99741
59.4972 -3.0507 -40.8471
-73.4146 5.21609 -58.3487
93.3689 -123.385 88.8541
-74.7961 -68.3253 -59.6601
75.6111 7.91745 -14.2271
54.2568 -75.3772 -41.5806
-78.6402 -50.1508 43.3884
-44.0996 -97.3209 89.1661
96.6692 -49.0654 47.668
8.01104 -116.136 99.3625
88.0139 3.48672 71.7017
-68.4829 -126.574 53.961
-44.4258 18.4525 61.8993
-56.8102 -112.645 -44.091
-34.2103 19.0637 -58.5901
38.8707 -15.2438 6.95727
81.5589 0.776118 -77.2237
18.6571 -107.299 -38.0088
6.61943 -109.797 59.1128
-51.5272 -28.7884 75.7493
-52.2355 -37.778 55.9334
-83.678 -14.1401 60.0444
65.1675 -122.46 58.1873
22.8334 -90.0672 79.0137
62.7323 -40.7249 77.8902
86.521 -86.5719 35.5977
-16.8598 -100.403 12.529
-13.775 -11.4099 39.7707
32.8819 -81.4453 64.0147
-12.5484 -45.0907 5.46857
-39.4936 -9.26733 -63.865
-88.4565 2.97413 75.1668
67.1484 -23.1502 84.2154
20.6899 -81.0252 -47.8652
-2.6282 -108.976 59.2649
-27.1947 -119.085 -68.6213
-98.7528 -56.73 -33.1046
4.05715 7.93873 -70.7964
-62.8643 -42.3998 -12.5308
97.152 -126.811 89.3604
-7.88293 -81.4313 54.2396
10.0448 -72.7736 33.8086
-17.5475 -97.4123 -17.9717
-35.0859 -6.89495 40.7981
0.619417 -83.8661 66.0269
-44.6418 -29.2621 79.1247
-31.9988 -28.3268 -12.9514
20.1072 -100.284 -27.4249
30.3334 -72.4321 77.6953
-94.7007 -74.5681 81.5219
93.4775 -5.48032 -40.1956
42.6326 -72.9467 28.476
-30.9134 -11.1073 67.5812
38.0069 -112.422 35.3073
-27.773 -36.9572 90.6679
-65.5209 4.56143 31.5534
-88.7158 -94.4377 -26.4387
-14.2173 -4.35726 9.22062
44.1995 -56.6072 78.3021
19.4165 -52.6327 -35.1797
-1.11465 -57.5246 -65.756
43.1124 -100.55 2.70793
-36.3587 -48.7353 -34.6209
-72.3795 -95.2301 -13.527
55.7396 -41.0599 98.1243
45.3707 -15.2006 79.598
-30.6811 -6.73739 -57.7272
28.8314 -92.4003 93.0441
-72.0345 15.7493 1.11545
-96.1433 -44.6883 93.9562
-46.343 -120.524 0.92661
-30.5163 -13.19 36.2664
61.3814 -115.459 -46.2159
-88.1974 -94.7436 -4.49203
-14.3385 -127.939 -77.7639
-16.4227 -18.9109 59.9954
-39.0916 -116.922 27.9106
-14.344 -20.2981 73.0302
-22.0729 0.676004 67.9294
68.0554 3.5685 -9.6966
61.34 -106.189 1.67426
-48.7415 -54.076 -38.1537
80.4434 -83.04 -20.7044
-82.0187 -74.188 21.6033
1.87902 -9.94192 24.0766
4.3636 -97.2589 -22.6164
-40.0859 -51.5776 -6.92241
79.8147 12.6643 -55.2801
49.8483 -78.8903 -78.4689
14.2142 -102.849 81.8133
92.3291 18.1563 -69.6132
-16.9217 -93.3998 21.4956
29.5742 -108.067 77.8477
95.4582 -94.5813 -35.1779
8.35069 -18.1721 -71.1082
-76.0086 -89.8994 -31.819
-12.2491 -44.9638 62.2879
68.9483 -60.1027 53.4851
96.4148 -97.7165 -65.1833
98.116 -12.0559 -32.6017
77.9085 -17.809 -34.8142
89.4494 -105.5 9.10604
2.22233 -8.31967 35.4253
-22.3914 -11.726 77.9277
27.4109 -80.463 32.1212
37.2906 -62.4695 80.242
90.8251 3.34371 2.28545
48.9228 -19.9451 86.1622
-2.76046 -22.634 -55.0977
13.7026 -24.047 86.4353
66.3673 -40.6157 41.0644
-83.4262 -48.5286 70.4641
15.5805 -121.862 36.4805
-56.1691 -63.6554 -1.59079
-80.6939 -118.097 57.8536
43.8852 -15.1292 -41.1098
21.9319 -22.0104 -61.0974
-86.6398 -60.3183 70.9685
97.9848 12.6114 19.8077
-74.3459 -52.1117 -33.0487
-89.4179 -77.3362 74.2125
45.0982 -64.9059 -8.02187
12.2805 -128.22 1.74389
-58.2968 -95.3473 81.3574
28.8245 -80.8678 95.6408
-18.0048 -122.954 53.4857
25.2065 -31.5049 3.07331
46.2094 -21.4848 86.6914
13.9522 -22.9961 77.825
-75.1503 -3.75561 -8.70903
-22.9823 4.18099 54.4875
-51.6351 -36.9954 -47.3995
28.3406 -102.785 -45.2641
-80.8328 -71.5076 -3.68085
98.4532 -124.889 55.2778
93.6096 -63.3929 63.7333
41.9271 -119.488 1.92738
-65.7692 -9.83092 -47.8543
-80.5566 -74.3667 80.5503
94.8045 -55.7295 52.0436
-25.9833 2.03382 33.0608
-76.5527 -111.692 -35.3337
-40.3299 -15.437 -2.67571
-1.73438 -1.06166 67.5151
83.0647 -2.22176 73.6481
33.3734 -7.01454 -26.4234
-6.92299 -50.5692 -13.8089
84.1074 -24.8961 -49.606
-80.1751 -10.3135 17.1539
98.2141 -14.2101 -73.7215
44.9292 -108.698 84.7191
-29.4478 -91.1121 -73.3119
20.1815 -46.3595 64.1636
-93.9026 -122.66 38.8896
70.0031 14.6383 12.2235
40.7232 -35.3317 -20.1939
-99.7472 -115.524 75.123
-26.2016 -127.443 21.2477
7.56942 -112.575 -15.1285
-84.4818 -113.914 -56.1806
-77.5058 -5.21728 -30.6177
-94.4846 -102.303 16.0478
-87.0534 -12.167 -63.5835
73.1284 -7.59394 -54.7758
5.228 -30.0916 -61.2099
-92.3014 -74.5493 52.392
-25.8503 -74.3597 69.7633
-53.4913 -19.0109 72.8312
59.0062 -88.3339 93.7416
-68.9144 -76.6952 -66.9554
-42.4484 -59.8245 82.7838
12.4208 -55.688 -63.9799
-80.8594 -45.978 77.4197
-62.6189 -66.1317 44.307
-34.592 12.7893 -15.8029
-13.7142 18.5632 50.738
-66.6119 -75.8245 -62.4937
99.7917 -40.943 70.6932
69.6042 -71.6883 -59.3074
62.6504 -48.3741 4.65834
77.1443 -5.21046 88.8689
58.0153 -70.8949 -1.95668
75.8154 -56.5394 98.8697
50.7262 -28.5036 -4.48833
-11.1549 -129.448 -13.1412
60.1752 -64.7332 -14.8653
5.43961 -39.6922 50.1453
24.8911 -39.8484 -22.9862
-7.67197 -62.6453 46.9878
15.3198 -90.6575 -35.0612
-90.6154 -107.799 -65.3137
97.0167 10.7122 5.61244
-16.2685 -7.42625 93.7652
-17.5243 -44.3816 35.5609
66.3775 -127.748 36.2238
-59.3349 -7.61634 -65.4561
13.037 -78.5366 42.9133
-42.3571 15.1317 -28.9048
20.9916 -65.6223 51.9209
-37.9109 -129.132 99.1319
12.0212 -122.094 -54.2272
28.3392 -124.331 -65.3726
-76.5358 -61.5327 81.7159
-83.4634 0.324019 4.45803
44.9376 -24.8928 7.16074
-25.9249 5.60599 -25.9789
-9.76495 -59.6163 35.7772
-73.1946 -16.384 29.9352
-16.4222 -75.6403 -72.8115
-69.8434 -29.0735 -71.7704
-70.808 -95.0576 -62.2832
-42.1716 1.19684 -55.4808
-25.9189 18.795 26.6799
-46.2345 -118.803 3.06872
47.6078 -10.0994 -50.8027
-55.547 -104.543 -68.0755
4.47651 -36.8668 16.385
-66.8822 -16.7627 -27.2758
55.2681 -104.079 37.9558
63.2553 -81.4619 -20.9324
72.3992 -59.5679 20.9985
92.0846 -16.1966 -1.56532
-80.6719 -110.636 -3.01135
37.8613 -70.3116 10.4255
-69.8401 -109.606 -25.6937
-37.3986 -76.266 4.8546
-24.1492 2.09137 -63.3855
82.9453 -123.07 72.4992
-58.4723 -6.61922 -76.396
72.5896 -34.1778 -18.1503
-61.7797 -54.8784 66.3682
50.4408 -60.8149 22.9323
-62.4095 -46.3188 46.1694
23.1334 -92.9228 -62.2046
-76.3938 -70.3029 -37.7315
-16.0535 -23.3518 26.7493
78.2294 -116.464 5.25893
96.6899 -129.255 13.5746
66.1335 -98.109 -18.3684
70.1379 -118.667 96.6182
-61.1402 -90.0015 6.76419
-98.5089 -127.171 89.7863
15.8603 -98.9781 10.2037
-43.9516 -6.62802 54.6963
-24.1788 11.0767 -53.6671
22.7862 -75.9635 74.3107
-58.6035 -92.2914 90.5542
36.1286 -94.7739 91.4486
-59.8996 -120.174 -50.2822
8.57994 7.42963 -36.6823
4.82241 -113.426 11.3159
-98.7729 -112.307 14.7108
89.8785 -25.412 51.9371
-9.89517 16.6243 19.9835
-60.2326 -76.5098 9.27551
-30.9739 15.5798 74.1194
-59.5176 -103.373 -60.6303
-70.0129 -1.27641 -18.3591
-79.5145 -121.201 -6.56764
-46.4947 -39.7661 -21.6521
1.63611 -111.149 -1.76273
-96.9018 -110.229 19.4686
8.33247 -117.82 -35.0258
-45.0707 -50.2415 -39.0767
66.0221 -20.416 25.1115
-34.7829 -118.646 19.8073
-63.5392 -88.2845 51.7598
-42.0173 -65.7942 26.2281
26.4726 -50.43 36.7868
-91.9359 -10.3011 -34.9326
-27.1048 -84.074 -12.3117
59.8255 -81.7503 11.4134
-29.6539 -0.500961 26.0292
20.3174 -109.304 -58.2606
65.7878 15.2126 73.2402
-17.4216 -85.8746 86.8646
93.4753 -58.529 -43.0769
39.8751 -15.042 33.9701
-42.0937 -70.1875 -50.546
87.6695 -64.1394 93.0928
-62.2556 -9.46802 -31.796
12.9536 -39.5989 26.1036
-85.476 13.1607 1.50246
32.3343 -46.6013 26.3377
56.4892 -72.2604 20.5928
26.7561 -10.3267 73.5432
12.1612 -15.2202 -20.6915
53.1869 -60.3139 -62.7419
-20.1796 -16.8841 9.03311
12.5471 -26.132 88.0658
4.87236 2.17626 52.7042
58.4323 -63.1086 -18.8145
-23.6748 -52.2155 -27.0217
66.8835 -102.965 73.0568
-14.9635 14.4021 -37.6557
96.8062 -40.5308 -74.0477
67.4098 -106.41 63.688
-66.6919 8.48029 -32.6886
-47.5162 -81.6544 -76.9496
51.4094 2.75586 47.6919
38.1493 -68.5899 26.3035
-14.4016 -99.7656 -73.4268
53.5823 -42.5217 19.9145
-87.5529 -67.359 52.3568
82.5102 -3.58166 45.6393
-70.4406 -5.977 -26.9977
-63.827 -30.4196 1.31041
95.8263 -5.43857 -12.5132
-51.6055 -116.076 45.5014
-48.2162 -2.51869 24.8085
93.6638 -48.9067 98.5006
11.7787 15.292 -45.2181
19.0823 -19.5212 59.7559
-69.9016 -10.1859 -45.075
77.1615 -23.3032 -73.373
16.7607 -1.13371 75.4546
75.6521 -124.004 14.9511
-34.003 -127.134 -15.5752
40.9823 -90.8383 1.13388
-19.5717 -52.0004 -25.8885
96.8822 -56.7526 71.4234
95.2162 -122.919 65.7738
-66.1372 -33.6068 18.3483
89.1471 -11.033 -17.8747
-72.0473 -28.1619 -69.8386
-64.684 -90.5914 84.8009
-91.9566 -108.852 91.9962
13.5446 -59.3546 95.4351
85.1277 -103.618 -37.5709
-24.7235 -43.2966 56.0286
35.4003 -45.6349 -36.0745
3.64847 -49.2228 -27.5767
-34.3806 -23.8257 88.0951
74.8953 -31.9654 50.8555
-56.0766 -11.0008 -6.93882
-44.7862 15.4862 40.3515
-61.6741 -128.481 65.7287
-70.5672 -43.3228 -29.4968
-75.6393 -54.477 2.16181
-28.4958 1.98036 -73.7941
-77.3529 -46.4694 27.444
-28.5468 -118.733 -55.6233
29.7013 -69.5185 71.7859
16.4736 -88.347 9.42746
-38.1314 -55.4045 -27.7736
43.0477 -13.9942 -33.1901
-23.2285 14.7503 -31.3676
-61.3077 -113.175 72.6451
-5.19297 -94.9047 -16.7273
86.0979 -41.2766 -38.3509
92.9934 -24.2912 61.8858
12.3756 -120.701 75.4061
39.4608 -23.4254 -32.0161
8.11178 -86.0702 17.9675
-92.5244 -39.6687 -72.5179
-34.495 -82.383 66.6891
17.516 -24.8043 60.3894
71.552 4.21491 80.5792
41.1576 -74.6798 -57.3064
-88.5395 -85.1064 49.1617
-42.2627 -90.3613 -3.98778
-84.6118 -6.07964 7.1706
88.0617 -51.484 -44.9398
-58.6229 -120.4 7.77595
50.2299 -114.793 -63.8265
58.5433 -65.6647 -6.68615
21.5311 -127.528 -60.4514
-22.4807 1.13623 -79.3935
-44.0594 -42.9956 -13.0092
-18.8443 -34.4002 40.8631
-75.3313 8.90282 88.4295
9.12676 -129.556 57.134
-94.017 11.4903 -28.6469
-55.0613 -107.477 -17.1272
42.4676 5.19552 1.12065
60.4381 -25.897 78.323
-58.1021 -84.7487 81.2897
-36.3814 -26.6092 58.6531
-35.7075 15.3463 -16.9416
38.7267 -73.7869 97.7782
-26.9809 -55.2854 84.4616
-39.837 -123.44 84.9944
-87.466 -118.953 74.7827
-30.407 -85.249 -78.1896
39.4518 -128.398 84.045
-70.4142 -8.06981 28.9686
-94.4998 -126.646 83.2702
84.7109 -78.9324 27.3391
38.77 -30.713 21.7547
-91.1651 -76.668 89.2103
-93.6337 -21.9037 -1.13212
89.1014 -126.781 6.73952
72.4285 -117.381 19.9958
44.4092 -65.1861 73.697
46.4208 -110.597 75.619
28.6931 -88.408 41.9352
-50.2307 -84.2828 45.9596
-68.8194 -95.7496 -72.7594
50.4463 8.32791 46.385
-36.4929 14.9541 -69.6166
-48.4814 19.7288 60.099
39.1495 11.5548 63.9613
-64.4732 -9.12381 79.1043
46.6333 -50.8169 -23.1191
17.4077 -91.0013 0.164151
-9.68229 5.51857 50.0746
-74.1987 -107.154 -75.0647
65.7563 -83.7689 -33.9642
73.8015 -120.934 -47.9707
14.2293 -73.3039 -54.0258
25.7665 -34.665 -54.3513
-18.5679 -80.3028 -64.4855
-58.6109 -53.6577 80.566
-81.8284 -93.6828 -4.4143
-18.6274 -5.62699 42.3842
70.4439 -87.8887 25.0065
14.9713 -68.5377 52.4212
20.4549 -94.2205 -72.1015
71.6057 -113.869 -61.2226
-92.8062 -28.1974 6.8128
-63.946 -83.8725 -58.7851
-35.4475 -22.7985 0.851489
-18.2091 8.24336 92.4622
-39.8025 -128.128 -43.9571
44.1816 -67.0985 -74.7095
-19.8359 -89.2655 -24.1759
96.838 -3.03708 49.5788
43.9726 -62.6959 92.5142
52.7487 -83.9916 -68.129
73.6125 -78.5963 54.0341
-29.9288 -51.5558 -70.6129
-6.35678 -3.14142 58.0289
83.4782 -91.7982 43.921
75.1029 -46.6501 46.1675
-84.8495 -88.5139 -58.3507
-78.9711 -28.3908 -9.46931
-16.9444 -30.7624 -37.1138
-72.968 -72.7829 43.6511
-81.2855 -108.221 98.8611
-68.0956 -128.012 -19.4544
80.8313 -75.4587 74.6786
91.2614 -5.22626 46.9089
44.6269 -17.6176 92.751
-17.6832 -36.2904 12.7709
-77.4971 -24.9275 62.5542
-53.4423 -9.15587 4.48521
24.9251 -96.8642 -56.4296
72.5765 -76.5901 12.2309
9.96656 -62.5543 38.3652
8.70115 -38.626 40.7507
75.974 -53.0025 -73.7997
47.8391 -59.5565 75.9288
-11.151 -101.086 30.7877
-19.2055 -39.3487 -36.7609
83.8732 -22.4715 89.3261
42.2668 12.4467 54.3391
-63.8608 -43.8594 94.1021
-37.6715 -64.4271 -21.8061
64.8073 18.0479 59.1288
-3.67586 -50.4263 -11.2224
-69.5084 -68.4458 81.1746
-62.6192 -107.566 -14.2932
-89.365 -40.9297 20.4032
33.7324 19.6661 -50.8152
81.7759 7.57107 78.2189
69.916 -35.7288 69.155
19.1817 -8.62441 -7.4763
12.6284 -111.878 71.2112
77.2883 11.7274 68.8686
31.8758 -66.0294 -15.6429
-91.7046 -43.1608 58.2222
87.3783 -15.1251 85.1424
-39.6141 -7.14889 12.0267
71.945 -56.8496 11.6261
-95.6274 -70.5177 -3.28859
80.1714 -93.0806 -70.1632
45.8992 -3.6944 75.4875
-73.5189 -69.2231 97.2339
94.4935 -86.2569 87.3068
59.9031 12.65 -15.9285
-68.589 18.8716 88.2786
84.9912 9.4053 46.1284
68.4828 -95.3053 13.5497
-29.2653 -116.346 -78.6698
72.5415 -113.067 -7.29094
-42.2236 -127.939 37.0123
-31.2938 -18.5142 8.57902
-58.5299 1.34663 81.5113
-61.6034 -2.78323 -45.9969
-75.7069 -32.8559 -54.8169
-4.51637 -9.29764 -56.171
-17.5402 -20.5542 -68.8846
-77.3975 -44.1922 -27.251
26.5467 8.85885 -10.8668
28.0247 -11.735 9.45277
-91.1875 -118.403 11.9265
38.8262 -66.8731 -34.2905
-62.7527 -35.7705 -56.6745
-83.2957 -6.97306 95.9856
-45.5144 11.2468 32.5585
-17.5332 -67.1405 -2.59864
8.94345 -5.29565 -51.2637
21.2938 11.6562 51.7057
79.9039 -43.4338 38.3363
-43.2814 -97.4153 0.254258
56.1106 -90.8059 14.171
-41.7489 13.3138 89.9233
9.03951 -108.751 22.9987
34.9567 -96.2224 -9.36898
30.4963 -55.3583 -19.8729
-44.4387 6.49182 55.5585
41.5628 -61.8006 25.2037
73.492 -120.83 15.1912
19.8316 14.0977 -60.9294
-48.6836 -93.3634 -21.8277
40.4878 -126.28 25.2053
-54.8778 -82.5921 17.1819
-66.0741 -0.812459 42.681
48.3689 -49.5949 83.2141
-73.1522 -101.723 -7.21582
-6.34428 -60.0518 -23.4256
-55.7237 -103.88 58.4136
61.1693 -123.761 69.4174
-33.0627 -33.8869 62.3346
-11.8731 4.60032 -73.7014
52.7628 -40.0339 -69.2379
-30.3424 -6.19221 -12.3484
77.6375 19.2522 -37.3234
13.9497 -19.4711 59.1627
-4.70128 0.664705 93.0954
76.17 -79.0935 -2.96667
-60.9696 -45.8863 28.3778
92.8234 -75.0093 35.865
58.8427 -24.8063 -28.7994
16.9923 -108.711 -47.279
23.9907 5.86101 60.6804
35.9486 -91.8958 29.2497
-88.883 -108.668 28.3524
-41.4645 -23.2054 -19.013
-86.8393 -101.731 -42.2153
-94.5111 -119.604 18.8724
-8.91848 -90.331 -60.1911
-88.4987 -95.7135 5.79774
40.2401 -126.581 -47.9698
97.1297 -38.8372 -22.4232
-66.5136 -95.8442 -39.39
89.798 6.11727 6.33509
11.1865 14.455 31.9339
-68.4219 -91.6434 -19.9126
-0.658589 -81.7729 14.0098
41.3244 -77.6562 26.4852
-48.8174 -9.34503 74.088
-26.8075 -0.719097 -64.7682
68.5233 -45.539 -60.6659
-95.8876 -47.6917 48.7294
-31.9133 -22.5769 89.7164
13.2089 -30.2284 73.0571
-90.8632 -96.8385 66.4031
33.5078 -73.155 -67.5689
-99.7284 1.35108 -9.6964
4.72689 -42.6557 53.1162
-76.9562 -4.26868 17.9021
94.2527 -99.3743 -6.96077
-88.8231 -122.982 94.3924
-67.3408 -119.897 13.1624
75.6918 -68.8325 -37.9299
64.2656 16.0742 81.7959
34.329 -127.073 -58.4103
-3.00085 -26.9424 9.8037
10.8114 -26.7387 -12.575
88.9265 -98.1935 92.2382
36.8334 -80.9107 63.1158
-54.3864 -85.2212 99.8666
26.7683 -76.8386 -71.7115
20.5376 -52.3442 -59.5885
-75.9486 -70.5753 13.8126
-29.2041 -97.3761 9.10163
-49.4309 3.37066 12.6138
-25.4423 -73.88 -43.7171
74.3395 9.2286 80.1965
-50.7438 0.923501 -61.6358
-59.368 -46.4514 -2.72864
99.6496 -12.2413 51.0059
99.5014 -67.165 -65.2004
-91.2892 -126.762 27.9866
-68.6097 -108.723 99.2963
35.6265 -55.6264 -41.5551
-65.3717 -17.6995 -61.5103
37.5325 -111.781 5.83377
77.8469 18.9734 -7.09192
55.843 -94.0845 -29.9837
76.2477 -63.6105 70.2746
-37.8953 -63.8733 31.5851
-92.3332 -64.2473 -73.013
-75.8891 -57.7141 -69.1272
44.096 -34.1714 -43.5951
43.3141 -82.4515 45.6532
86.0307 -56.4803 0.413778
-93.4252 -103.331 22.2762
1.94569 -119.946 21.0442
82.9547 -3.06345 64.1429
-61.4717 -20.8777 -36.1897
-94.4999 -124.299 43.1623
29.4835 -118.549 -57.9344
37.2468 -100.466 28.8086
49.3277 7.60614 -36.1971
89.7776 -34.9083 20.8611
29.3923 -45.3853 -70.9152
-81.259 -40.4542 -38.9122
32.3812 -113.995 -26.847
-55.3474 -126.779 -54.5232
-95.1887 -97.8827 76.4236
-46.5106 -93.7576 83.2646
90.3364 3.35497 97.0058
-85.1463 -43.7099 -47.5532
35.7522 -81.7141 -62.4258
84.4221 -89.3809 51.6842
-3.50994 7.66332 -26.7782
6.58431 -128.281 80.6768
52.2374 -28.9951 99.8829
-88.7037 4.49437 -76.2517
-60.3961 8.10285 -37.7109
-86.5921 -101.78 5.77992
94.813 -109.028 -14.1941
91.4862 -97.8875 89.354
-72.4618 3.92669 -32.703
-52.935 -7.75671 16.0399
93.3808 -85.3892 1.23587
-47.4838 -5.45093 3.29872
-68.954 -41.2729 -55.4953
-69.0841 -32.8007 -74.1021
-64.9194 -3.09778 91.6213
-17.9315 6.95813 -54.5148
77.3795 3.06789 -29.3481
-49.5029 -3.31749 9.18692
-61.3318 17.3361 -10.101
-8.77959 -97.3651 -43.4091
97.9314 -102.33 10.1239
-11.8065 -62.9424 -20.4172
80.7476 -39.6579 86.0554
-92.025 -16.471 22.6946
-85.4718 9.83945 -5.02278
-94.7814 -78.6092 -20.673
-66.4645 -95.5746 -40.9916
-10.1846 -57.7017 -68.9725
88.9119 -28.7006 -72.1692
-33.4226 -110.285 -33.0073
7.234 -111.837 0.197244
-92.6283 -45.6916 80.6663
-26.4252 -60.1309 9.07681
-41.9193 -54.1496 -34.6884
72.1858 -43.2534 -46.8811
-44.5062 -39.3395 14.7879
21.4127 -14.1879 56.0984
64.7554 -96.8264 -37.1437
77.0081 -105.142 84.4157
85.709 -55.2093 -71.9267
-62.0769 -124.784 -50.1307
27.0312 -119.255 51.0394
5.54933 -64.074 -45.1177
-95.4764 -20.5134 45.9028
-45.1302 -41.3741 -30.0014
-8.33144 0.246309 78.7912
96.9884 -58.6942 37.7658
48.2089 -85.1276 77.5741
95.8271 -102.372 -72.5968
78.5111 -113.09 17.152
87.4815 -84.6474 23.4114
-79.3304 10.626 36.3053
66.2689 -60.212 -64.5835
-94.973 -56.8194 66.8004
44.9189 -15.6671 -6.84844
-99.527 -96.9156 -30.5529
76.9077 -99.1743 55.0141
7.7585 11.9824 -71.139
-17.1591 8.85267 -37.9849
-8.93336 -7.264 -17.6926
99.0133 -16.6529 36.7305
13.9149 -1.1507 25.4816
-56.857 -26.449 -70.7728
-39.7275 -22.6788 17.0439
-76.6159 -63.9896 -25.7565
4.66358 -63.6349 13.9447
59.6048 -80.9541 50.9355
9.62053 -0.135246 41.3144
19.466 -88.0046 27.9376
66.1495 -19.7046 -4.7792
-64.62 -20.4446 -48.7627
65.0805 -85.0085 -74.1435
-17.7176 -52.6512 50.1176
-7.46522 -7.44689 -1.09693
-99.6386 10.0912 78.1156
-39.3681 -61.4112 -22.2463
65.0149 -91.7075 36.6088
10.4988 -9.49213 12.4465
-54.7074 -69.8926 62.8409
65.2232 -95.2805 15.1954
-51.1981 -68.7455 -33.3382
-16.4899 -94.9351 20.6516
-9.98271 -33.2233 -66.5299
-65.4075 -113.822 80.5339
22.2625 -113.551 68.6432
-2.05352 -68.0773 -29.0501
62.1173 -94.3161 16.9008
-8.31745 -11.442 -18.4897
94.4008 -127.473 53.6392
53.113 -3.55513 95.3026
-41.1144 -116.954 -11.192
10.7321 -54.3211 30.8859
-77.4328 13.1918 -32.9821
-62.466 -110.864 -13.5688
-84.095 -19.1669 6.16978
81.0641 -95.7071 80.477
-62.3249 -124.119 -56.7023
45.3427 -55.3572 85.5672
-86.3125 -59.5566 88.6002
62.1754 -94.7219 60.334
56.9561 -50.5576 75.9896
-66.5905 -117.509 -13.1958
56.6161 -100.583 -21.3656
-91.1418 -72.4326 1.59776
-17.3293 -60.5039 -45.4026
78.4149 -74.7058 -4.25107
56.7227 -46.4495 2.80596
82.609 -87.4425 92.3773
66.5726 -77.1769 -3.09062
53.9061 -105.545 39.2431
9.83281 12.1718 -45.426
-16.8454 -112.771 -30.4363
57.3814 4.69098 4.86391
-77.4693 11.3347 73.9447
13.1949 -76.6623 -22.66
51.6365 -92.8511 43.693
-64.198 -125.309 -36.0464
27.8086 11.6477 15.0227
19.3389 -13.4228 78.4104
-95.2062 -47.9932 -72.2439
37.2862 -115.619 98.3622
75.7017 -53.2527 -60.9631
-69.2275 -85.2166 -79.3339
25.0657 -68.3186 90.2677
-3.88457 16.5776 -25.7271
59.8266 -19.695 18.8516
-2.73672 7.15643 24.4807
46.1007 -46.9871 14.4579
-48.3186 -107.483 -25.6495
-72.307 -103.888 72.7586
-63.6891 -0.922956 90.0162
-65.5089 -19.1467 2.11297
-44.3568 3.9327 55.853
-43.6166 -52.268 -50.1293
-54.4303 19.8186 -54.2362
5.87295 -10.3115 78.1297
-84.292 -87.364 62.7174
31.7977 -127.789 -17.6671
-63.2491 -89.0275 9.35338
-2.85965 -68.2577 40.6883
-33.1279 -41.0246 15.5807
-44.2209 -15.1563 -31.3953
47.0157 -123.424 -50.676
-2.03654 -81.1363 42.6024
31.1531 -46.959 42.3847
59.7795 -117.554 6.01085
35.4792 -105.773 57.174
-5.94588 -6.92503 59.8277
63.3129 -129.362 -71.0053
-37.4056 -56.5066 3.08546
96.6925 -6.35248 -70.1441
2.89331 -114.518 67.6684
56.8986 -4.25642 75.5598
89.4807 -80.7838 -45.8037
25.7056 17.581 53.8454
-38.3115 -12.5844 68.7802
57.2562 -60.975 97.8523
9.6717 9.56563 65.5422
-34.9642 -17.9497 66.308
-24.97 -121.004 -25.4999
67.3472 -123.485 -57.1228
78.2982 -46.3145 -38.5446
42.3743 -78.6406 -67.6523
15.2185 -86.5301 -8.59293
53.2143 7.74915 -11.4957
1.93148 -95.9844 -50.597
-32.7572 -128.042 32.2331
-35.1435 -45.7886 19.7118
-73.4299 2.98833 -25.8278
89.1346 -90.7392 -15.0325
-50.3097 -115.229 -7.21391
-24.8906 18.4949 93.2087
21.1709 -24.7244 -25.1601
34.8905 -88.3105 27.0039
-85.7683 -123.4 12.3028
-9.6525 -46.9512 53.1215
23.0175 3.48095 55.4707
-52.2791 -97.8767 -23.4756
58.5118 -77.9491 -43.8896
-81.2969 -86.0982 3.22345
-9.11074 -48.8305 20.9489
71.7627 7.5015 19.1428
64.2168 -51.6204 -34.5265
-74.85 -100.453 15.5008
44.0432 -89.7788 23.4211
-53.3981 -22.0181 -56.9203
94.5147 -79.755 -76.7432
45.0377 -43.9643 -38.1952
-92.1574 -75.0804 24.2658
-52.0347 -61.053 76.948
40.4358 7.11391 -5.64864
-47.3987 -14.0641 -20.6468
62.76 -40.9015 73.4087
-86.7139 -22.039 -71.1343
19.3981 -64.0066 -22.8688
-65.6895 -29.0552 -73.2906
-40.0454 -33.1692 -12.9966
-36.4267 -74.391 90.2463
10.023 -68.509 -23.8502
-74.126 -32.535 58.8862
-99.7394 -77.2081 43.4229
-17.1267 -37.7571 2.54599
48.8212 -65.6871 -70.5358
19.2754 -55.7226 59.0174
29.1262 -116.174 -41.7906
92.6053 -90.4412 79.3432
-99.9398 -45.4752 15.5401
-25.4915 2.20471 82.271
-36.329 -65.278 -23.9398
26.0597 -45.8725 93.0182
-19.6223 -45.677 -23.6315
-82.4858 16.4779 87.0599
9.232 -21.9062 -15.7646
19.7478 -82.4497 73.3682
-25.7885 14.3949 89.9594
16.6664 8.84889 -42.5699
-6.28561 8.89403 58.8598
99.8701 -85.2246 37.5054
80.1712 -37.4714 -64.8282
-57.5397 -92.9266 36.1248
-65.2973 -32.6433 -42.6876
-2.66564 -19.5076 -46.9141
-17.0435 -87.5836 82.7984
54.3291 2.22721 -40.1412
24.7383 -92.1142 -46.8672
13.5821 -4.61435 -60.2485
55.1711 -84.3286 -73.5757
9.4597 -84.426 -19.8453
-59.9787 -99.2976 91.1891
-43.1211 -67.4524 -44.3228
85.9065 -41.4254 72.5053
-72.6353 -118.425 25.0962
-35.8733 -56.2072 75.9958
-54.9861 -90.4604 54.6685
-10.6985 3.09333 -79.8685
26.1157 -61.7201 70.5943
48.0618 -95.3418 -54.6
55.1999 -13.247 0.0888204
-77.9615 16.7689 36.9317
-87.7514 -90.5719 -68.0112
-48.11 -101.142 38.2783
-78.6597 -80.6186 52.1688
38.1139 -32.5235 -39.2798
11.4426 1.23694 8.1677
-38.9258 -81.7869 -12.1203
-38.7796 12.7999 69.8156
-71.4527 -26.1538 -68.5946
-43.2304 -59.7539 71.509
45.7571 -43.225 67.6317
-24.3188 -34.0386 -65.0546
-10.9979 4.87893 -30.4251
-79.5775 -129.116 28.8327
67.2768 -25.5304 -34.1955
-87.4786 -91.9485 -56.7112
10.4855 -46.1428 1.14448
85.9074 -0.22753 -7.49568
52.3691 -128.817 -62.8802
65.0418 -86.2399 21.4151
33.3851 -126.922 -54.4549
-2.5797 -70.1611 60.6988
14.0263 -3.40947 42.5535
69.1096 11.9074 43.6145
-9.96527 -12.635 -11.022
40.9286 -3.244 34.6398
66.805 -70.3799 -44.7315
-43.0345 -80.9493 -69.0045
37.5259 -116.672 -67.585
56.5479 7.10885 -15.0728
-30.7687 -42.8523 -11.3792
-2.3853 -119.787 60.4275
-46.0533 -34.2674 32.3362
90.1173 -57.4352 22.6251
27.4668 10.0908 -16.537
-95.891 -34.2127 -44.4298
31.4866 -59.109 27.1144
70.6738 -16.3848 85.9752
82.891 -63.2404 -78.0318
96.6855 -95.8295 86.4988
-31.1732 -43.906 11.076
45.0722 -120.695 23.3315
1.10276 -80.235 -41.7894
-74.0793 -87.647 45.2884
39.9486 7.95304 33.3974
-89.537 11.0348 -31.6579
-50.0145 -40.3502 53.4114
69.0015 -62.3449 9.74958
53.4184 -75.1766 89.8611
55.6052 -77.6625 -49.1343
40.6039 -26.0424 54.1785
-58.2006 -67.2383 65.3445
56.6122 8.5888 -54.9375
99.0685 -121.971 -4.11396
38.2778 -17.0092 -18.5703
-35.7251 -9.16194 -29.3285
17.9884 -121.673 78.2512
-33.7768 5.07834 -20.5627
65.945 -29.8579 45.2254
54.6796 -63.154 -71.9696
88.9748 -107.701 52.7795
38.062 -76.3515 -51.9064
-0.444204 -108.892 -65.5998
27.403 -109.591 -55.9646
-88.2792 -5.88262 79.6243
-20.024 -107.676 44.63
36.2776 -19.1851 54.6226
12.1123 -119.518 36.7167
78.1538 4.94104 -23.1128
17.2931 -29.0493 57.1024
26.2158 -37.3182 83.8611
-26.2514 -83.7717 -31.7607
4.96376 -9.10489 -6.43154
20.964 -63.5526 18.0593
47.6699 -54.762 -12.9999
25.0303 5.22 13.7884
-36.4919 -42.5718 -33.2338
-86.9112 -108.488 -20.655
42.774 -124.872 -38.7257
-94.0181 -36.9024 82.4151
58.3179 -92.2406 13.6333
40.3858 -36.9291 69.1072
93.985 -108.206 34.1813
-24.2723 -17.4833 -66.0819
84.6825 -56.7309 24.2037
-40.8729 -112.958 6.46769
63.3364 -65.3271 -68.6184
-84.7011 -55.5105 -42.8035
-18.7622 -98.43 -36.6502
27.0981 -93.9435 75.0669
7.5593 -125.205 -59.6218
-88.4037 -19.9157 52.0633
77.2709 -24.427 78.2158
4.139 -117.631 33.2358
19.6036 -129.119 -58.8412
-64.6145 -84.774 -38.391
31.4607 -112.272 39.2165
44.1069 -100.798 -51.396
85.4363 -39.8692 -13.512
-66.3973 -94.5456 29.7558
-94.1007 -13.8762 35.5096
-71.4582 -5.17898 -12.3892
75.2787 -22.2258 -65.7017
51.074 -94.1216 -50.8591
-23.1084 -4.41887 -49.8023
0.401275 -127.88 4.46882
46.6335 -29.2843 25.7427
-20.9037 -71.2041 60.7857
10.8785 -82.1269 -11.0574
84.7541 -56.9248 31.4878
6.70489 -52.5004 -9.16355
-64.9511 -31.094 -39.3783
10.172 -49.635 89.9507
26.0591 -86.3295 -46.9952
58.4378 -28.6608 -76.2978
91.9908 -103.36 -73.7535
-14.155 6.61528 47.1053
-96.663 -84.0625 -62.3396
59.7655 -0.903605 -4.89184
-63.6316 -12.3381 82.7984
60.2438 -82.3094 -4.20208
-61.0491 -56.0227 -65.5149
-15.9139 -123.394 30.9231
-27.0798 -28.8494 83.3277
9.59227 -60.021 24.9348
13.7058 -66.0279 56.903
20.6463 -1.64414 40.8413
-38.1255 0.858585 95.9663
-18.5028 -29.3173 70.882
64.9507 -2.04101 32.0763
45.8377 -31.8582 89.305
-69.9424 -2.64496 -1.92218
-53.8478 -89.5804 6.00541
69.4 -34.8902 -52.6139
50.8753 -102.696 31.3609
-32.5305 -17.4166 -71.8726
-80.4161 -76.9319 82.1544
53.852 -30.526 59.1847
49.3701 -119.403 0.00397206
17.0168 4.30982 -26.4452
-58.454 -36.3119 91.325
-70.3373 -13.7687 64.151
16.4159 -129.155 -67.3454
-88.0226 -2.10451 46.7864
-57.5935 -38.948 79.5512
66.1408 11.6541 34.6513
75.1713 -123.658 98.333
55.3429 -8.269 37.7017
9.99256 -46.2414 50.4179
98.8859 -108.479 31.5897
-41.6088 -77.3193 -35.9846
-51.2478 -55.0723 -76.507
-91.08 -117.76 -75.4924
-77.0193 -108.777 77.9822
63.8544 -76.9724 7.24455
41.1335 -102.367 -2.77056
-31.4762 -120.988 4.83984
-33.3284 -4.48121 -29.083
97.4513 -71.9868 71.4273
42.3601 -72.8224 97.2528
-33.6513 -29.029 -19.5304
15.2548 7.53515 70.3829
19.1359 14.2252 85.0705
24.1444 -118.539 -69.4622
-0.319865 4.35147 -5.82915
96.6185 -39.7984 27.3307
-17.571 11.5945 38.1447
76.6955 -88.4018 8.76722
-66.73 -90.3133 78.3831
-98.4774 16.4568 -33.0038
98.4701 -83.7817 88.1614
-34.3414 2.6594 73.2036
-67.2493 -57.9887 66.2737
-83.8377 -114.88 80.0265
-72.1291 -40.1203 61.2483
10.283 -42.6564 -10.5098
-70.4607 19.1654 -20.5964
60.8111 1.687 29.3215
-40.5586 -123.361 76.9455
-64.5774 -122.219 72.6937
-12.3594 -123.366 -51.8443
-25.5135 -74.1221 -72.6531
-55.2873 -49.5591 13.7606
-92.7609 -37.4373 31.9041
85.0464 -16.5342 -40.2402
41.9889 -83.8219 64.5721
-80.7997 -61.6675 63.5706
-14.7957 -91.0591 41.595
-93.3274 -46.4781 49.5624
81.0565 -19.9111 58.9001
50.7162 -104.181 66.8609
82.0002 -48.3158 -46.0855
90.1635 -14.7813 50.4436
-5.65809 -9.35195 -18.4812
-81.3202 -20.5672 -62.3222
-37.1426 -64.0755 -6.90856
-76.5069 -49.6753 75.0905
83.0159 14.228 -58.1805
18.1215 19.2325 42.0458
-37.9204 5.02487 -5.84753
-83.5869 -31.938 25.1356
79.5919 -45.4378 -56.8434
-82.7253 -52.8152 81.4191
62.212 17.9412 46.1968
-69.4338 -118.049 -2.48384
-49.7919 -70.9059 76.6256
31.4209 -53.2861 -6.98472
3.74361 -66.0242 -13.9111
27.9875 -127.433 -14.8322
-36.406 -80.8733 -32.8023
45.9857 -68.5635 84.8721
-37.197 -83.8696 6.34666
-11.4674 -70.9136 98.9684
-32.1129 -99.2546 96.4979
-91.8942 -76.33 -69.1609
-5.76519 -38.6739 1.75207
-31.7368 -90.1082 93.8087
49.3913 -12.3005 -9.42025
-77.1766 -66.3098 -6.33993
-4.76786 -18.6143 52.6121
47.674 -59.1251 -53.6641
30.8652 -12.0228 1.69239
-73.1941 -95.6234 72.5961
-74.3403 -44.7081 -70.5094
-78.2316 -38.6287 -6.10536
-66.1881 -117.953 -76.514
24.6476 -66.7552 -28.6438
17.7684 -104.712 -67.4044
96.1904 -87.5941 9.02375
-21.9651 -16.17 -37.3134
-74.6184 -55.4145 47.7365
-45.3563 -107.266 9.30906
45.413 -87.1612 50.561
14.9643 -67.9164 -27.0887
25.5094 -51.59 82.5568
-92.3855 -26.2311 97.0137
-88.5121 -82.7454 -7.09256
-31.4497 5.58088 23.2534
-17.4546 2.72365 74.1404
81.4606 -88.7502 30.7364
-71.1099 -69.714 -59.761
70.8195 -28.7312 -32.4798
-29.9482 -69.6714 18.9268
-84.8804 16.5518 93.4272
-26.09 -39.3162 7.51912
-45.4713 -33.6053 -47.9582
-48.7895 -24.9894 8.74731
32.2188 -123.577 -8.55563
-53.0552 -61.6677 -29.2873
-81.7881 -75.5722 20.2125
41.2524 -53.9046 92.5557
63.7401 -75.79 34.0783
-83.4597 -23.2511 -73.5274
26.459 -11.9114 -77.6653
19.1559 -106.479 31.1553
-83.6006 -65.5824 -33.1711
-47.9986 -27.1745 92.8416
50.6095 -78.0104 -79.4505
-70.0079 -42.8018 2.54826
-13.6604 -29.1429 67.8616
97.6869 -73.2036 -20.824
89.4155 -100.399 44.2281
16.1692 -87.9933 -7.67323
23.361 6.85101 -45.9669
25.9551 -53.7821 -17.7416
-50.539 -41.4825 59.5595
1.49303 -2.48149 2.95008
-6.46079 -39.5244 65.3376
-5.85024 -17.0302 -10.0246
85.87 -102.276 -68.9961
50.1607 -104.01 -0.840376
-84.0881 -111.949 34.6814
53.943 -24.8219 85.0895
-65.6939 -82.3012 69.3107
-27.8793 12.1652 -19.2278
41.2967 -100.739 86.9931
-3.63718 -24.6194 60.0154
88.5296 -104.465 -11.4139
50.0158 -33.8526 -55.8502
-72.2338 -44.4501 -22.5808
-60.0072 -81.8296 8.60678
27.9479 -69.8957 30.2683
-44.6283 -104.438 -23.518
-61.1956 -78.7088 33.7206
-95.2948 -24.6183 24.3188
-27.7702 -68.6457 59.4319
-42.2222 3.62636 5.88866
-86.6496 -4.97646 36.5307
-10.4428 -42.4646 -28.0924
16.3904 -21.64 74.5675
80.1895 8.35463 -47.628
-21.3586 -45.6844 24.4972
-98.8382 -4.15563 55.1711
-36.0804 -125.052 -63.2795
90.2758 -121.523 63.1786
6.18565 -67.351 -43.1963
-38.89 -24.0177 -62.8446
56.5418 -14.0049 87.1836
-13.9796 -96.837 12.226
43.6955 -9.54424 -37.7419
15.4371 -24.4021 -51.7164
51.406 -115.421 49.4623
-32.4861 -114.55 20.4756
-82.296 -66.6101 26.4128
-63.7176 -73.9032 36.5847
95.3698 5.73606 -68.2365
-63.7372 -98.4315 58.9422
-44.6757 18.9749 18.1363
-58.9162 -66.5098 57.9319
43.5572 -108.738 22.4788
90.5106 -22.1604 -30.8037
-78.0631 -58.606 -13.309
65.7839 -7.97052 5.23134
-22.5766 5.3075 81.2993
95.6599 -117.481 -31.3845
25.1984 -120.953 -48.5013
38.2689 -93.7563 -10.619
-7.35083 -52.2631 -11.8492
-98.3105 -21.4502 64.339
54.9472 -63.7823 89.8532
-31.1874 -70.8993 39.2607
23.4751 -54.4466 -55.0665
97.5763 -80.1087 91.3689
-7.72226 -22.0411 73.7379
-28.5008 -25.2962 88.7611
25.5163 -81.3974 99.617
60.5149 -127.696 -36.8906
-62.3951 -58.2088 56.3937
13.3281 -56.9417 6.65347
-26.2952 -90.7313 86.1147
