-1.40529 -2.273806 1.361972 -0.215579 -0.19531525 0.11284225 
0.0 2.971317 0.413857 0.0026215 0.4964475 0.059441 
-2.351529 1.846926 -0.243259 -0.3851625 0.315491 -0.045994 
-0.243426 1.860719 -2.340613 -0.040447 0.3138635 -0.3871095 
2.899178 -0.660351 -0.398377 0.4826085 -0.114074 -0.0638435 
-1.713755 -0.639069 2.377948 -0.285624 -0.106498 0.3963295 
-0.393601 -2.594788 -1.453325 -0.073594 -0.430258 -0.243848 
0.660351 -0.398377 -2.899178 0.114537 -0.0645755 -0.4824015 
-0.716031 1.158562 -2.67302 -0.1399265 0.1828695 -0.4438235 
1.540126 -1.692763 1.939733 0.23856 -0.2755095 0.342321 
0.8198 0.0 -2.885815 0.124345 0.0017815 -0.4842885 
-0.639069 2.377948 -1.713755 -0.106498 0.3963295 -0.285624 
-1.540126 1.692763 1.939733 -0.23856 0.2755095 0.342321 
2.106139 -2.081342 -0.481866 0.342768 -0.353335 -0.0875465 
-1.074686 0.394966 2.772914 -0.179126 0.0658195 0.462149 
1.40529 2.273806 -1.361972 0.215579 0.3906305 -0.2256845 
1.820475 -2.275957 0.711259 0.2960805 -0.3836515 0.1230775 
-1.692763 1.939733 1.540126 -0.2755095 0.342321 0.23856 
-1.820475 -2.275957 -0.711259 -0.2960805 -0.3836515 -0.1230775 
-1.942236 -0.888014 2.106929 -0.323266 -0.143748 0.353321 
2.772914 -1.074686 0.394966 0.462149 -0.179126 0.0658195 
1.804503 -2.12132 -1.115244 0.3139875 -0.3537 -0.162198 
-1.115244 -1.804503 -2.12132 -0.163501 -0.314396 -0.3527355 
1.763356 1.275976 -2.064573 0.2938035 0.1886695 -0.3578875 
-2.275957 0.711259 1.820475 -0.3837415 0.122931 0.2960245 
-1.804503 2.12132 -1.115244 -0.3139875 0.3537 -0.162198 
2.738947 -0.246971 1.198821 0.448234 -0.0637455 0.212186 
-0.716031 1.158562 2.67302 -0.140333 0.1835395 0.4434185 
-0.792248 -2.748733 0.903777 -0.129288 -0.457611 0.1545205 
2.772914 1.074686 0.394966 0.462149 0.179126 0.0658195 
-1.692763 1.939733 -1.540126 -0.2755095 0.342321 -0.23856 
-0.888014 2.106929 1.942236 -0.143748 0.353321 0.323266 
2.340613 -0.243426 -1.860719 0.387908 -0.0380315 -0.313179 
2.12132 1.115244 -1.804503 0.352735 0.163501 -0.3143965 
-2.064573 1.763356 -1.275976 -0.3578875 0.2938035 -0.1886695 
-0.481866 -2.106139 2.081342 -0.0875465 -0.342768 0.353335 
2.106139 2.081342 0.481866 0.342768 0.353335 0.0875465 
0.716031 -1.158562 -2.67302 0.140333 -0.1835395 -0.4434185 
0.799214 -2.891584 0.0 0.1069765 -0.4884205 0.0012775 
2.520534 0.469303 -1.557775 0.405805 0.077629 -0.2815955 
0.0 2.133845 -2.108721 0.0 0.355651 -0.351443 
-2.594788 -1.453325 0.393601 -0.430258 -0.243848 0.073594 
0.927051 1.5 -2.427051 0.13169 0.243508 -0.416367 
-0.788597 2.85317 -0.48738 -0.1170505 0.474662 -0.1048585 
-0.716031 -1.158562 -2.67302 -0.140333 -0.1835395 -0.4434185 
-1.150841 -2.531734 1.125116 -0.2046955 -0.418472 0.181607 
0.469303 -1.557775 -2.520534 0.077629 -0.2815945 -0.4058055 
2.963065 0.246727 -0.399213 0.493265 0.0636225 -0.051398 
-2.273806 1.361972 1.40529 -0.389645 0.226963 0.2160195 
2.588005 -1.301666 0.779676 0.4293315 -0.213267 0.1420975 
-0.792248 2.748733 -0.903777 -0.129288 0.457611 -0.1545205 
2.531734 -1.125116 -1.150841 0.4176255 -0.1829665 -0.205213 
0.394966 -2.772914 1.074686 0.0658195 -0.462149 0.179126 
-0.788597 -2.85317 0.48738 -0.1170505 -0.474662 0.1048585 
-2.531734 1.125116 1.150841 -0.4176255 0.1829665 0.205213 
0.788597 -2.85317 -0.48738 0.1170505 -0.474662 -0.1048585 
-2.340613 0.243426 1.860719 -0.387908 0.0380315 0.313179 
-1.301666 -0.779676 -2.588005 -0.213267 -0.142098 -0.4293315 
-2.273806 -1.361972 -1.40529 -0.389645 -0.226963 -0.2160195 
-0.393601 -2.594788 1.453325 -0.073594 -0.430258 0.243848 
-2.74513 -1.210066 0.0 -0.4591385 -0.1979675 0.000932 
2.588005 -1.301666 -0.779676 0.4293315 -0.213267 -0.1420975 
-2.891584 0.0 -0.799214 0.488582 -0.001724 0.1062285 
-2.531734 -1.125116 -1.150841 -0.4176255 -0.1829665 -0.205213 
2.081342 0.481866 2.106139 0.3542635 0.08604 0.342191 
2.85317 0.48738 0.788597 0.4749375 0.104412 0.1163285 
2.971317 0.413857 0.0 0.4964475 0.05944 0.0026215 
-0.243259 2.351529 -1.846926 -0.045994 0.3851625 -0.3154905 
-1.577193 -2.551953 0.0 -0.2859925 -0.4101315 0.0004465 
1.557775 2.520534 0.469303 0.280974 0.4064985 0.076241 
-2.963065 0.246727 0.399213 0.492911 -0.063577 -0.054743 
-1.540126 -1.692763 1.939733 -0.23856 -0.2755095 0.342321 
-0.779676 -2.588005 1.301666 -0.142098 -0.4293315 0.213267 
1.150841 -2.531734 1.125116 0.2046955 -0.418472 0.181607 
2.520534 0.469303 1.557775 0.405917 0.076758 0.281673 
-1.40529 2.273806 -1.361972 -0.215579 0.3906305 -0.2256845 
-2.594788 1.453325 0.393601 -0.430258 0.243848 0.073594 
1.713755 -0.639069 -2.377948 0.285624 -0.106498 -0.3963295 
2.971317 -0.413857 0.0 0.497012 -0.054516 0.0026245 
-2.899178 -0.660351 -0.398377 0.4826085 0.114074 0.0638435 
2.350355 -1.548365 -1.038459 0.392253 -0.2599635 -0.168987 
1.820475 2.275957 0.711259 0.2960805 0.3836515 0.1230775 
-1.198821 2.738947 -0.246971 -0.212908 0.447955 -0.0632985 
2.081342 -0.481866 2.106139 0.3542635 -0.08604 0.3421905 
1.5 -2.427051 0.927051 0.266329 -0.39816 0.1433085 
0.243259 2.351529 1.846926 0.044489 0.384581 0.3164145 
-2.738947 0.246971 -1.198821 -0.448234 0.0637455 -0.212186 
1.846926 0.243259 -2.351529 0.3164145 0.044489 -0.384581 
0.0 -2.971317 -0.413857 0.0026215 -0.4964475 -0.059441 
0.711259 -1.820475 -2.275957 0.124437 -0.2965995 -0.382811 
2.531734 1.125116 1.150841 0.4176255 0.1829665 0.205213 
0.792248 2.748733 0.903777 0.129288 0.457611 0.1545205 
2.106929 1.942236 0.888014 0.353726 0.322178 0.145186 
-2.885815 -0.8198 0.0 0.4842885 0.124345 -0.0017815 
2.74513 -1.210066 0.0 0.459138 -0.1979675 0.000932 
1.548365 -1.038459 -2.350355 0.2599635 -0.168987 -0.392253 
-2.67302 -0.716031 1.158562 -0.4438235 -0.1399265 0.182869 
2.748733 0.903777 -0.792248 0.457953 0.154096 -0.1285835 
2.108721 0.0 -2.133845 0.351443 0.0 -0.355651 
2.531734 1.125116 -1.150841 0.4176255 0.1829665 -0.205213 
-1.40529 2.273806 1.361972 -0.215579 0.3906305 0.2256845 
1.125116 -1.150841 -2.531734 0.1829665 -0.205213 -0.4176255 
-1.158562 -2.67302 -0.716031 -0.1822835 -0.444507 -0.138514 
0.0 2.885815 -0.8198 0.0017815 0.484288 -0.1243465 
2.106139 -2.081342 0.481866 0.342768 -0.353335 0.0875465 
1.939733 -1.540126 -1.692763 0.342321 -0.23856 -0.2755095 
2.350355 1.548365 1.038459 0.392253 0.2599635 0.168987 
-2.594788 -1.453325 -0.393601 -0.430258 -0.243848 -0.073594 
0.0 -2.74513 1.210066 0.000932 -0.459138 0.1979685 
0.469303 1.557775 -2.520534 0.076758 0.2816725 -0.4059175 
1.150841 2.531734 1.125116 0.2046955 0.418472 0.181607 
1.275976 -2.064573 -1.763356 0.1886695 -0.3578875 -0.2938035 
-1.540126 1.692763 -1.939733 -0.23856 0.2755095 -0.342321 
2.594788 -1.453325 -0.393601 0.430258 -0.243848 -0.073594 
-2.67302 0.716031 1.158562 -0.4438235 0.1399265 0.182869 
1.301666 -0.779676 -2.588005 0.213267 -0.142098 -0.4293315 
-2.350355 1.548365 1.038459 -0.392253 0.2599635 0.168987 
1.820475 2.275957 -0.711259 0.2960805 0.3836515 -0.1230775 
0.888014 2.106929 -1.942236 0.143748 0.353321 -0.323266 
0.243259 -2.351529 -1.846926 0.045994 -0.3851625 -0.3154905 
2.273806 -1.361972 -1.40529 0.389645 -0.226963 -0.2160195 
1.692763 -1.939733 -1.540126 0.2755095 -0.342321 -0.23856 
0.0 2.885815 0.8198 0.0017815 0.484288 0.1243465 
-0.779676 2.588005 -1.301666 -0.1420975 0.4293315 -0.213267 
0.0 2.551953 1.577193 0.0098115 0.430073 0.2548355 
0.0 2.74513 -1.210066 0.000932 0.459138 -0.1979685 
-0.48738 0.788597 -2.85317 -0.104412 0.1163285 -0.4749375 
0.48738 0.788597 2.85317 0.1048585 0.1170505 0.474662 
0.0 -2.971317 0.413857 0.0026245 -0.497012 0.054518 
-2.106929 1.942236 -0.888014 -0.353726 0.322178 -0.145186 
-0.394966 2.772914 -1.074686 -0.0658195 0.462149 -0.179126 
-1.939733 -1.540126 -1.692763 -0.342321 -0.23856 -0.2755095 
-0.48738 0.788597 2.85317 -0.1048585 0.1170505 0.474662 
1.548365 -1.038459 2.350355 0.2599635 -0.168987 0.392253 
-1.557775 -2.520534 -0.469303 -0.28105 -0.4066085 -0.0753695 
2.273806 -1.361972 1.40529 0.389645 -0.226963 0.2160195 
0.711259 1.820475 -2.275957 0.122931 0.296024 -0.3837415 
-0.481866 2.106139 2.081342 -0.08604 0.3421905 0.354264 
-1.275976 2.064573 -1.763356 -0.1886695 0.3578875 -0.2938035 
2.594788 1.453325 0.393601 0.430258 0.243848 0.073594 
2.891584 0.0 -0.799214 0.488582 0.001724 -0.1062285 
1.763356 1.275976 2.064573 0.2938035 0.1886695 0.3578875 
2.551953 0.0 1.577193 0.410132 -0.0004465 0.2859925 
0.398377 2.899178 0.660351 0.0664085 0.4821655 0.114482 
-1.453325 -0.393601 2.594788 -0.243848 -0.073594 0.430258 
-2.772914 1.074686 0.394966 -0.462149 0.179126 0.0658195 
2.963065 -0.246727 -0.399213 0.493868 -0.058704 -0.051461 
-0.243426 -1.860719 -2.340613 -0.0380315 -0.313179 -0.387908 
-2.738947 -0.246971 1.198821 -0.448234 -0.0637455 0.212186 
1.150841 -2.531734 -1.125116 0.2046955 -0.418472 -0.181607 
-2.108721 0.0 2.133845 -0.351443 0.0 0.355651 
0.393601 2.594788 1.453325 0.073594 0.430258 0.243848 
0.399213 2.963065 0.246727 0.05548 0.4927685 0.0640405 
-0.481866 2.106139 -2.081342 -0.0875465 0.342768 -0.353335 
3.0 0.0 0.0 0.499107 0.002492 0.029766 
-2.275957 0.711259 -1.820475 -0.3837415 0.122931 -0.2960245 
0.399213 -2.963065 0.246727 0.05481 -0.4935125 0.058663 
0.393601 -2.594788 1.453325 0.073594 -0.430258 0.243848 
0.716031 1.158562 -2.67302 0.1399265 0.1828695 -0.4438235 
0.639069 -2.377948 1.713755 0.106498 -0.3963295 0.285624 
0.660351 0.398377 2.899178 0.114481 0.066408 0.482166 
-0.399213 2.963065 -0.246727 -0.052199 0.493735 -0.0591695 
1.40529 -2.273806 1.361972 0.215579 -0.3906305 0.2256845 
1.5 -2.427051 -0.927051 0.266329 -0.39816 -0.1433085 
-1.557775 2.520534 -0.469303 -0.28105 0.4066085 -0.0753695 
1.301666 0.779676 -2.588005 0.213267 0.142098 -0.4293315 
2.427051 -0.927051 -1.5 0.416367 -0.13169 -0.2435085 
-2.275957 -0.711259 -1.820475 -0.3837415 -0.122931 -0.2960245 
-0.788597 -2.85317 -0.48738 -0.1163285 -0.4749375 -0.104412 
-0.398377 2.899178 -0.660351 -0.0645755 0.4824015 -0.114538 
-2.85317 -0.48738 -0.788597 0.4749375 0.104412 0.1163285 
-2.12132 -1.115244 1.804503 -0.3527355 -0.163501 0.3143965 
-0.469303 1.557775 2.520534 -0.076758 0.2816725 0.4059175 
-2.588005 1.301666 0.779676 -0.4293315 0.213267 0.1420975 
2.350355 -1.548365 1.038459 0.392253 -0.2599635 0.168987 
2.899178 0.660351 0.398377 0.4823755 0.114019 0.0656765 
-0.394966 2.772914 1.074686 -0.0658195 0.462149 0.179126 
2.67302 0.716031 1.158562 0.4438235 0.1399265 0.182869 
1.361972 1.40529 -2.273806 0.226963 0.21602 -0.389645 
1.301666 -0.779676 2.588005 0.213267 -0.142098 0.4293315 
-1.198821 -2.738947 0.246971 -0.2128595 -0.4478525 0.0641775 
-1.038459 -2.350355 1.548365 -0.168987 -0.392253 0.2599635 
1.548365 1.038459 -2.350355 0.2599635 0.168987 -0.392253 
-0.903777 -0.792248 2.748733 -0.154521 -0.129288 0.457611 
1.713755 -0.639069 2.377948 0.285624 -0.106498 0.3963295 
0.246971 1.198821 2.738947 0.0641775 0.2128595 0.447853 
1.860719 2.340613 -0.243426 0.313908 0.387165 -0.039559 
-1.846926 0.243259 -2.351529 -0.3164145 0.044489 -0.384581 
1.158562 -2.67302 -0.716031 0.1829545 -0.444104 -0.1389215 
-1.942236 0.888014 2.106929 -0.323266 0.143748 0.353321 
0.788597 2.85317 0.48738 0.1170505 0.474662 0.1048585 
1.540126 1.692763 1.939733 0.23856 0.2755095 0.342321 
-2.275957 -0.711259 1.820475 -0.3837415 -0.122931 0.2960245 
-1.540126 -1.692763 -1.939733 -0.23856 -0.2755095 -0.342321 
0.243426 1.860719 2.340613 0.0389195 0.313136 0.3878545 
-1.548365 1.038459 -2.350355 -0.2599635 0.168987 -0.392253 
-0.393601 2.594788 -1.453325 -0.073594 0.430258 -0.243848 
0.394966 2.772914 1.074686 0.0658195 0.462149 0.179126 
1.038459 -2.350355 -1.548365 0.168987 -0.392253 -0.2599635 
1.860719 2.340613 0.243426 0.3138635 0.3871095 0.040447 
1.198821 -2.738947 0.246971 0.212186 -0.448234 0.063746 
1.860719 -2.340613 0.243426 0.3138635 -0.3871095 0.040447 
-0.660351 -0.398377 -2.899178 -0.114537 -0.064576 -0.4824015 
0.0 2.971317 -0.413857 0.0026245 0.497012 -0.054518 
-1.820475 2.275957 -0.711259 -0.2960805 0.3836515 -0.1230775 
-2.748733 -0.903777 0.792248 -0.457953 -0.154096 0.1285835 
-1.074686 0.394966 -2.772914 -0.179126 0.0658195 -0.462149 
-2.738947 0.246971 1.198821 -0.4483355 0.062866 0.212234 
-2.748733 0.903777 -0.792248 -0.457953 0.154096 -0.1285835 
1.540126 -1.692763 -1.939733 0.23856 -0.2755095 -0.342321 
-0.660351 -0.398377 2.899178 -0.114537 -0.064576 0.4824015 
-0.927051 -1.5 2.427051 -0.13169 -0.243508 0.416367 
-2.427051 0.927051 1.5 -0.416367 0.13169 0.2435085 
2.899178 0.660351 -0.398377 0.4826085 0.114074 -0.0638435 
2.588005 1.301666 -0.779676 0.4293315 0.213267 -0.1420975 
-1.115244 -1.804503 2.12132 -0.1635015 -0.314396 0.3527355 
2.350355 1.548365 -1.038459 0.392253 0.2599635 -0.168987 
-1.942236 -0.888014 -2.106929 -0.323266 -0.143748 -0.353321 
2.106929 -1.942236 -0.888014 0.353726 -0.322178 -0.145186 
0.393601 2.594788 -1.453325 0.073594 0.430258 -0.243848 
-1.301666 0.779676 -2.588005 -0.213267 0.142098 -0.4293315 
-2.67302 -0.716031 -1.158562 -0.4438235 -0.1399265 -0.182869 
0.788597 -2.85317 0.48738 0.1163285 -0.4749375 0.104412 
1.942236 -0.888014 -2.106929 0.323266 -0.143748 -0.353321 
-1.820475 2.275957 0.711259 -0.2960805 0.3836515 0.1230775 
-0.399213 2.963065 0.246727 -0.052135 0.4931275 0.064087 
1.158562 2.67302 0.716031 0.1829545 0.444104 0.1389215 
-2.772914 -1.074686 -0.394966 -0.462149 -0.179126 -0.0658195 
1.158562 2.67302 -0.716031 0.1829545 0.444104 -0.1389215 
1.115244 1.804503 2.12132 0.163501 0.314396 0.3527355 
-0.711259 1.820475 2.275957 -0.122931 0.296024 0.3837415 
1.713755 0.639069 -2.377948 0.285624 0.106498 -0.3963295 
2.67302 -0.716031 -1.158562 0.4438235 -0.1399265 -0.182869 
1.038459 2.350355 -1.548365 0.168987 0.392253 -0.2599635 
1.453325 -0.393601 2.594788 0.243848 -0.073594 0.430258 
-1.860719 -2.340613 0.243426 -0.3138635 -0.3871095 0.040447 
0.246727 -0.399213 2.963065 0.059168 -0.052199 0.493735 
1.038459 -2.350355 1.548365 0.168987 -0.392253 0.2599635 
-0.246971 -1.198821 -2.738947 -0.0632985 -0.212908 -0.447955 
-1.804503 -2.12132 1.115244 -0.3139875 -0.3537 0.162198 
-2.885815 0.8198 0.0 0.4842885 -0.124345 -0.0017815 
-2.350355 1.548365 -1.038459 -0.392253 0.2599635 -0.168987 
2.772914 1.074686 -0.394966 0.462149 0.179126 -0.0658195 
-0.660351 0.398377 -2.899178 -0.114019 0.0656765 -0.4823755 
-1.150841 2.531734 -1.125116 -0.2046955 0.418472 -0.181607 
-0.716031 -1.158562 2.67302 -0.140333 -0.1835395 0.4434185 
-1.5 2.427051 -0.927051 -0.266329 0.39816 -0.1433085 
0.927051 -1.5 -2.427051 0.13169 -0.243508 -0.416367 
-2.963065 0.246727 -0.399213 0.493265 -0.0636225 0.051398 
-1.713755 -0.639069 -2.377948 -0.285624 -0.106498 -0.3963295 
-0.927051 1.5 -2.427051 -0.13169 0.243508 -0.416367 
-1.804503 -2.12132 -1.115244 -0.3139875 -0.3537 -0.162198 
-2.748733 -0.903777 -0.792248 -0.457953 -0.154096 -0.1285835 
-1.763356 1.275976 -2.064573 -0.2938035 0.1886695 -0.3578875 
2.273806 1.361972 -1.40529 0.389645 0.226963 -0.2160195 
-2.971317 -0.413857 0.0 0.497012 0.054516 -0.0026245 
2.081342 -0.481866 -2.106139 0.3542635 -0.08604 -0.3421905 
1.453325 0.393601 -2.594788 0.243848 0.073594 -0.430258 
2.351529 -1.846926 0.243259 0.3851625 -0.315491 0.045994 
1.713755 0.639069 2.377948 0.285624 0.106498 0.3963295 
2.427051 0.927051 -1.5 0.416367 0.13169 -0.2435085 
-1.210066 0.0 -2.74513 -0.1979675 0.000932 -0.4591385 
-2.520534 -0.469303 -1.557775 -0.405917 -0.076758 -0.281673 
-2.891584 0.0 0.799214 0.488582 0.001724 -0.1062285 
1.577193 0.0 2.551953 0.254835 0.0098115 0.430073 
0.0 1.577193 2.551953 0.0004465 0.2859925 0.410132 
2.427051 -0.927051 1.5 0.416367 -0.13169 0.2435085 
-2.588005 1.301666 -0.779676 -0.4293315 0.213267 -0.1420975 
0.639069 2.377948 -1.713755 0.106498 0.3963295 -0.285624 
1.939733 -1.540126 1.692763 0.342321 -0.23856 0.2755095 
-1.158562 2.67302 -0.716031 -0.1829545 0.444104 -0.1389215 
-2.963065 -0.246727 -0.399213 0.493868 0.058704 0.051461 
-2.064573 -1.763356 1.275976 -0.3578875 -0.2938035 0.1886695 
-0.398377 -2.899178 -0.660351 -0.0638435 -0.4826085 -0.114075 
1.115244 -1.804503 2.12132 0.163501 -0.314396 0.3527355 
-2.74513 1.210066 0.0 -0.4591385 0.1979675 0.000932 
-2.377948 -1.713755 0.639069 -0.3963295 -0.285624 0.106498 
0.660351 -0.398377 2.899178 0.114537 -0.064576 0.4824015 
0.0 0.799214 2.891584 0.001725 0.107724 0.4882545 
-1.846926 -0.243259 -2.351529 -0.3164145 -0.044489 -0.384581 
-1.158562 2.67302 0.716031 -0.1829545 0.444104 0.1389215 
0.398377 -2.899178 0.660351 0.0656765 -0.4823755 0.11402 
-0.903777 0.792248 -2.748733 -0.154096 0.1285835 -0.457953 
-1.846926 -0.243259 2.351529 -0.3164145 -0.044489 0.384581 
-2.12132 1.115244 -1.804503 -0.352735 0.163501 -0.3143965 
-1.453325 0.393601 -2.594788 -0.243848 0.073594 -0.430258 
0.246971 -1.198821 2.738947 0.0641775 -0.2128595 0.447853 
2.340613 0.243426 -1.860719 0.3878545 0.0389195 -0.313136 
-0.246727 0.399213 -2.963065 -0.0586615 0.05481 -0.4935125 
0.0 -2.551953 1.577193 0.0098115 -0.430073 0.2548355 
2.520534 -0.469303 1.557775 0.405805 -0.077629 0.2815955 
2.748733 -0.903777 0.792248 0.457953 -0.154096 0.1285835 
0.0 -1.577193 2.551953 0.0004465 -0.2859925 0.410132 
-2.520534 0.469303 1.557775 -0.405917 0.076758 0.281673 
-1.361972 -1.40529 -2.273806 -0.226963 -0.21602 -0.389645 
2.85317 -0.48738 -0.788597 0.4749375 -0.104412 -0.1163285 
-1.820475 -2.275957 0.711259 -0.2960805 -0.3836515 0.1230775 
0.888014 -2.106929 -1.942236 0.1451865 -0.3537265 -0.322178 
0.48738 -0.788597 -2.85317 0.1048585 -0.1170505 -0.474662 
-1.275976 -2.064573 -1.763356 -0.1886695 -0.3578875 -0.2938035 
2.064573 1.763356 1.275976 0.3578875 0.2938035 0.1886695 
2.67302 -0.716031 1.158562 0.4438235 -0.1399265 0.182869 
0.243259 2.351529 -1.846926 0.044489 0.384581 -0.3164145 
0.0 -1.577193 -2.551953 0.0004465 -0.2859925 -0.410132 
-2.520534 0.469303 -1.557775 -0.405805 0.077629 -0.281595 
1.361972 -1.40529 -2.273806 0.226963 -0.21602 -0.389645 
-2.12132 1.115244 1.804503 -0.352735 0.1635015 0.3143965 
0.246727 0.399213 -2.963065 0.063577 0.054743 -0.492911 
1.198821 -2.738947 -0.246971 0.212908 -0.447955 -0.0632985 
-0.799214 2.891584 0.0 -0.107724 0.4882545 0.001725 
-2.67302 0.716031 -1.158562 -0.4438235 0.1399265 -0.182869 
0.246727 -0.399213 -2.963065 0.064087 -0.052135 -0.4931275 
0.8198 0.0 2.885815 0.124345 0.0017815 0.4842885 
2.594788 1.453325 -0.393601 0.430258 0.243848 -0.073594 
-0.394966 -2.772914 -1.074686 -0.0658195 -0.462149 -0.179126 
0.660351 0.398377 -2.899178 0.114019 0.0656765 -0.4823755 
1.115244 -1.804503 -2.12132 0.1635015 -0.314396 -0.3527355 
-1.577193 0.0 -2.551953 -0.254835 0.0098115 -0.430073 
-1.210066 0.0 2.74513 -0.1979675 0.000932 0.4591385 
1.860719 -2.340613 -0.243426 0.313908 -0.387165 -0.039559 
-2.748733 0.903777 0.792248 -0.457953 0.154096 0.1285835 
-0.413857 0.0 -2.971317 -0.054516 0.0026245 -0.497012 
-1.361972 1.40529 -2.273806 -0.226963 0.21602 -0.389645 
0.903777 -0.792248 2.748733 0.154521 -0.129288 0.457611 
-2.273806 1.361972 -1.40529 -0.389645 0.226963 -0.2160195 
-0.246727 -0.399213 2.963065 -0.064087 -0.052135 0.4931275 
-2.427051 -0.927051 1.5 -0.416367 -0.13169 0.2435085 
2.520534 -0.469303 -1.557775 0.405917 -0.076758 -0.281673 
-1.5 -2.427051 -0.927051 -0.266329 -0.39816 -0.1433085 
-1.301666 -0.779676 2.588005 -0.213267 -0.142098 0.4293315 
-1.860719 2.340613 0.243426 -0.3138635 0.3871095 0.040447 
0.792248 -2.748733 -0.903777 0.129288 -0.457611 -0.1545205 
-0.8198 0.0 -2.885815 -0.124345 0.0017815 -0.4842885 
-0.639069 2.377948 1.713755 -0.106498 0.3963295 0.285624 
0.48738 -0.788597 2.85317 0.1048585 -0.1170505 0.474662 
-1.692763 -1.939733 -1.540126 -0.2755095 -0.342321 -0.23856 
0.927051 -1.5 2.427051 0.13169 -0.243508 0.416367 
-2.551953 -1.577193 0.0 -0.430073 -0.254835 0.0098115 
1.942236 0.888014 2.106929 0.323266 0.143748 0.353321 
-2.106139 2.081342 0.481866 -0.342768 0.353335 0.0875465 
-2.081342 0.481866 2.106139 -0.3542635 0.08604 0.342191 
2.064573 -1.763356 1.275976 0.3578875 -0.2938035 0.1886695 
0.469303 -1.557775 2.520534 0.077629 -0.2815945 0.4058055 
1.115244 1.804503 -2.12132 0.1635015 0.314396 -0.3527355 
2.273806 1.361972 1.40529 0.389645 0.226963 0.2160195 
1.301666 0.779676 2.588005 0.213267 0.142098 0.4293315 
2.064573 -1.763356 -1.275976 0.3578875 -0.2938035 -0.1886695 
0.394966 2.772914 -1.074686 0.0658195 0.462149 -0.179126 
-1.548365 1.038459 2.350355 -0.2599635 0.168987 0.392253 
-2.106139 -2.081342 0.481866 -0.342768 -0.353335 0.0875465 
-1.5 -2.427051 0.927051 -0.266329 -0.39816 0.1433085 
-1.115244 1.804503 2.12132 -0.163501 0.314396 0.3527355 
-1.038459 2.350355 1.548365 -0.168987 0.392253 0.2599635 
-2.85317 -0.48738 0.788597 0.4749375 0.104412 -0.1163285 
1.804503 2.12132 -1.115244 0.3139875 0.3537 -0.162198 
-1.125116 -1.150841 -2.531734 -0.1829665 -0.205213 -0.4176255 
1.763356 -1.275976 -2.064573 0.2938035 -0.1886695 -0.3578875 
0.0 -2.133845 -2.108721 -0.0 -0.355651 -0.351443 
0.0 0.0 3.0 -0.002492 0.029766 0.499107 
-2.899178 0.660351 -0.398377 0.4826085 -0.114074 0.0638435 
1.804503 -2.12132 1.115244 0.3139875 -0.3537 0.162198 
-0.792248 -2.748733 -0.903777 -0.1285835 -0.457953 -0.154096 
-0.792248 2.748733 0.903777 -0.129288 0.457611 0.1545205 
1.763356 -1.275976 2.064573 0.2938035 -0.1886695 0.3578875 
1.942236 0.888014 -2.106929 0.323266 0.143748 -0.353321 
-1.763356 -1.275976 -2.064573 -0.2938035 -0.1886695 -0.3578875 
0.413857 0.0 -2.971317 0.05944 0.0026215 -0.4964475 
2.551953 -1.577193 0.0 0.430073 -0.254835 0.0098115 
-2.133845 2.108721 0.0 -0.355651 0.351443 -0.0 
2.551953 1.577193 0.0 0.430073 0.254835 0.0098115 
2.738947 -0.246971 -1.198821 0.4483355 -0.062866 -0.212234 
-0.246971 -1.198821 2.738947 -0.0632985 -0.212908 0.447955 
0.399213 2.963065 -0.246727 0.0555485 0.4933745 -0.059126 
-1.125116 1.150841 -2.531734 -0.1829665 0.205213 -0.4176255 
0.888014 2.106929 1.942236 0.143748 0.353321 0.323266 
-2.588005 -1.301666 -0.779676 -0.4293315 -0.213267 -0.1420975 
-2.340613 0.243426 -1.860719 -0.3878545 0.0389195 -0.313136 
2.531734 -1.125116 1.150841 0.4176255 -0.1829665 0.205213 
2.106929 1.942236 -0.888014 0.353726 0.322178 -0.145186 
1.210066 0.0 2.74513 0.1979675 0.000932 0.4591385 
2.594788 -1.453325 0.393601 0.430258 -0.243848 0.073594 
-0.246727 0.399213 2.963065 -0.0640405 0.05548 0.4927685 
2.551953 0.0 -1.577193 0.4101315 0.0004465 -0.2859925 
1.074686 -0.394966 -2.772914 0.179126 -0.0658195 -0.462149 
-0.469303 -1.557775 -2.520534 -0.076758 -0.2816725 -0.4059175 
-1.40529 -2.273806 -1.361972 -0.215579 -0.3906305 -0.2256845 
-3.0 0.0 0.0 0.499107 -0.002492 -0.029766 
0.792248 2.748733 -0.903777 0.129288 0.457611 -0.1545205 
-0.888014 -2.106929 -1.942236 -0.143748 -0.353321 -0.323266 
1.804503 2.12132 1.115244 0.3139875 0.3537 0.162198 
-2.081342 -0.481866 2.106139 -0.3542635 -0.08604 0.342191 
-2.273806 -1.361972 1.40529 -0.389645 -0.226963 0.2160195 
0.394966 -2.772914 -1.074686 0.0658195 -0.462149 -0.179126 
-1.860719 -2.340613 -0.243426 -0.313908 -0.387165 -0.039559 
-1.692763 -1.939733 1.540126 -0.2755095 -0.342321 0.23856 
-2.106929 1.942236 0.888014 -0.353726 0.322178 0.145186 
0.0 -3.0 0.0 0.002544 -0.499744 0.0157895 
2.588005 1.301666 0.779676 0.4293315 0.213267 0.1420975 
2.963065 -0.246727 0.399213 0.4935125 -0.0586615 0.05481 
0.903777 0.792248 -2.748733 0.154096 0.1285835 -0.457953 
-1.361972 -1.40529 2.273806 -0.226963 -0.21602 0.389645 
-0.243259 -2.351529 -1.846926 -0.044489 -0.384581 -0.3164145 
0.246971 1.198821 -2.738947 0.062866 0.212234 -0.4483355 
0.903777 0.792248 2.748733 0.154521 0.129288 0.457611 
-1.301666 0.779676 2.588005 -0.213267 0.142098 0.4293315 
0.481866 2.106139 2.081342 0.08604 0.3421905 0.354264 
1.577193 -2.551953 0.0 0.2859925 -0.4101315 0.0004465 
0.393601 -2.594788 -1.453325 0.073594 -0.430258 -0.243848 
-0.243426 1.860719 2.340613 -0.0380315 0.313179 0.387908 
-0.779676 2.588005 1.301666 -0.1420975 0.4293315 0.213267 
-0.413857 0.0 2.971317 -0.05944 0.0026215 0.4964475 
2.275957 0.711259 -1.820475 0.3837415 0.122931 -0.2960245 
-2.064573 -1.763356 -1.275976 -0.3578875 -0.2938035 -0.1886695 
-2.350355 -1.548365 1.038459 -0.392253 -0.2599635 0.168987 
-2.772914 -1.074686 0.394966 -0.462149 -0.179126 0.0658195 
-1.804503 2.12132 1.115244 -0.3139875 0.3537005 0.162198 
2.772914 -1.074686 -0.394966 0.462149 -0.179126 -0.0658195 
2.377948 -1.713755 0.639069 0.3963295 -0.285624 0.106498 
1.820475 -2.275957 -0.711259 0.2960805 -0.3836515 -0.1230775 
1.453325 0.393601 2.594788 0.243848 0.073594 0.430258 
-0.243259 -2.351529 1.846926 -0.045994 -0.3851625 0.3154905 
1.548365 1.038459 2.350355 0.2599635 0.168987 0.392253 
-2.588005 -1.301666 0.779676 -0.4293315 -0.213267 0.1420975 
-0.243426 -1.860719 2.340613 -0.039559 -0.3139085 0.387165 
-0.469303 -1.557775 2.520534 -0.076758 -0.2816725 0.4059175 
2.891584 0.0 0.799214 0.488582 0.001724 0.1062285 
-1.074686 -0.394966 -2.772914 -0.179126 -0.0658195 -0.462149 
-1.713755 0.639069 2.377948 -0.285624 0.106498 0.3963295 
-1.548365 -1.038459 -2.350355 -0.2599635 -0.168987 -0.392253 
0.243426 -1.860719 -2.340613 0.040447 -0.3138635 -0.3871095 
-1.158562 -2.67302 0.716031 -0.1829545 -0.444104 0.1389215 
-0.246971 1.198821 -2.738947 -0.0637455 0.212186 -0.448234 
1.942236 -0.888014 2.106929 0.323266 -0.143748 0.353321 
0.711259 -1.820475 2.275957 0.124437 -0.2965995 0.382811 
-0.48738 -0.788597 2.85317 -0.1048585 -0.1170505 0.474662 
0.481866 -2.106139 -2.081342 0.0875465 -0.342768 -0.353335 
-0.469303 1.557775 -2.520534 -0.077629 0.2815945 -0.4058055 
1.846926 0.243259 2.351529 0.3164145 0.044489 0.384581 
-1.846926 0.243259 2.351529 -0.3164145 0.044489 0.384581 
2.738947 0.246971 -1.198821 0.448234 0.0637455 -0.212186 
2.377948 1.713755 0.639069 0.3963295 0.285624 0.106498 
2.377948 1.713755 -0.639069 0.3963295 0.285624 -0.106498 
1.074686 -0.394966 2.772914 0.179126 -0.0658195 0.462149 
1.557775 2.520534 -0.469303 0.28105 0.4066085 -0.0753695 
-2.106139 -2.081342 -0.481866 -0.342768 -0.353335 -0.0875465 
1.939733 1.540126 1.692763 0.342321 0.23856 0.2755095 
-2.377948 1.713755 -0.639069 -0.3963295 0.285624 -0.106498 
1.846926 -0.243259 -2.351529 0.3164145 -0.044489 -0.384581 
-2.85317 0.48738 0.788597 0.4749375 -0.104412 -0.1163285 
2.85317 -0.48738 0.788597 0.4749375 -0.104412 0.1163285 
0.0 2.133845 2.108721 0.0 0.355651 0.351443 
-2.106139 2.081342 -0.481866 -0.342768 0.353335 -0.0875465 
-2.064573 1.763356 1.275976 -0.3578875 0.2938035 0.1886695 
-1.763356 1.275976 2.064573 -0.2938035 0.1886695 0.3578875 
-2.081342 0.481866 -2.106139 -0.3542635 0.08604 -0.342191 
1.939733 1.540126 -1.692763 0.342321 0.23856 -0.2755095 
2.885815 -0.8198 0.0 0.4842885 -0.124345 0.0017815 
-2.377948 1.713755 0.639069 -0.3963295 0.285624 0.106498 
0.788597 2.85317 -0.48738 0.1170505 0.474662 -0.1048585 
0.0 0.0 -3.0 0.002492 0.029766 -0.499107 
-2.551953 0.0 1.577193 -0.410132 -0.0004465 0.2859925 
2.85317 0.48738 -0.788597 0.4749375 0.104412 -0.1163285 
-0.779676 -2.588005 -1.301666 -0.1420975 -0.4293315 -0.213267 
-2.531734 1.125116 -1.150841 -0.4176255 0.1829665 -0.205213 
-2.340613 -0.243426 1.860719 -0.3878545 -0.0389195 0.313136 
1.692763 -1.939733 1.540126 0.2755095 -0.342321 0.23856 
2.738947 0.246971 1.198821 0.4483355 0.062866 0.212234 
1.453325 -0.393601 -2.594788 0.243848 -0.073594 -0.430258 
-2.106929 -1.942236 0.888014 -0.353726 -0.322178 0.145186 
2.275957 0.711259 1.820475 0.3837415 0.122931 0.2960245 
-2.899178 0.660351 0.398377 0.4823755 -0.114019 -0.0656765 
-0.788597 2.85317 0.48738 -0.1170505 0.474662 0.1048585 
2.885815 0.8198 0.0 0.4842885 0.124345 0.0017815 
-2.85317 0.48738 -0.788597 0.4749375 -0.104412 0.1163285 
-1.548365 -1.038459 2.350355 -0.2599635 -0.168987 0.392253 
-0.48738 -0.788597 -2.85317 -0.1048585 -0.1170505 -0.474662 
-2.899178 -0.660351 0.398377 0.4823755 0.114019 -0.0656765 
2.081342 0.481866 -2.106139 0.3542635 0.08604 -0.342191 
-2.081342 -0.481866 -2.106139 -0.3542635 -0.08604 -0.3421905 
0.716031 -1.158562 2.67302 0.140333 -0.1835395 0.4434185 
1.125116 1.150841 2.531734 0.1829665 0.205213 0.4176255 
2.12132 1.115244 1.804503 0.352735 0.163501 0.3143965 
1.074686 0.394966 2.772914 0.179126 0.0658195 0.462149 
-1.074686 -0.394966 2.772914 -0.179126 -0.0658195 0.462149 
0.398377 -2.899178 -0.660351 0.0664085 -0.4821655 -0.114482 
2.74513 1.210066 0.0 0.459138 0.1979675 0.000932 
-2.971317 0.413857 0.0 0.4964475 -0.05944 -0.0026215 
-1.939733 1.540126 1.692763 -0.342321 0.23856 0.2755095 
-2.520534 -0.469303 1.557775 -0.405805 -0.077629 0.2815955 
-2.427051 0.927051 -1.5 -0.416367 0.13169 -0.2435085 
0.779676 2.588005 -1.301666 0.1420975 0.4293315 -0.213267 
-2.551953 0.0 -1.577193 -0.410132 0.0004465 -0.2859925 
-1.150841 2.531734 1.125116 -0.2046955 0.418472 0.181607 
0.779676 2.588005 1.301666 0.1420975 0.4293315 0.213267 
1.577193 0.0 -2.551953 0.254835 0.0098115 -0.430073 
-2.427051 -0.927051 -1.5 -0.416367 -0.13169 -0.2435085 
1.540126 1.692763 -1.939733 0.23856 0.2755095 -0.342321 
-0.711259 1.820475 -2.275957 -0.124437 0.2965995 -0.382811 
0.0 2.551953 -1.577193 0.0098115 0.430073 -0.2548355 
1.125116 1.150841 -2.531734 0.1829665 0.205213 -0.4176255 
-1.939733 1.540126 -1.692763 -0.342321 0.23856 -0.2755095 
2.340613 -0.243426 1.860719 0.3878545 -0.0389195 0.313136 
-0.888014 2.106929 -1.942236 -0.1451865 0.3537265 -0.322178 
0.779676 -2.588005 -1.301666 0.1420975 -0.4293315 -0.213267 
-1.939733 -1.540126 1.692763 -0.342321 -0.23856 0.2755095 
-2.350355 -1.548365 -1.038459 -0.392253 -0.2599635 -0.168987 
-1.125116 -1.150841 2.531734 -0.1829665 -0.205213 0.4176255 
-0.399213 -2.963065 0.246727 -0.052199 -0.493735 0.0591695 
-0.243259 2.351529 1.846926 -0.044489 0.384581 0.3164145 
-1.453325 0.393601 2.594788 -0.243848 0.073594 0.430258 
2.108721 0.0 2.133845 0.351443 0.0 0.355651 
-0.888014 -2.106929 1.942236 -0.1451865 -0.3537265 0.322178 
0.779676 -2.588005 1.301666 0.1420975 -0.4293315 0.213267 
0.711259 1.820475 2.275957 0.122931 0.296024 0.3837415 
-2.340613 -0.243426 -1.860719 -0.387908 -0.0380315 -0.313179 
0.0 1.577193 -2.551953 -0.0004465 0.2859925 -0.410132 
-0.639069 -2.377948 -1.713755 -0.106498 -0.3963295 -0.285624 
-2.531734 -1.125116 1.150841 -0.4176255 -0.182966 0.205213 
-0.903777 0.792248 2.748733 -0.154521 0.129288 0.457611 
-2.351529 -1.846926 0.243259 -0.3851625 -0.315491 0.045994 
0.0 -2.133845 2.108721 -0.0 -0.355651 0.351443 
1.210066 0.0 -2.74513 0.1979675 0.000932 -0.459138 
-0.8198 0.0 2.885815 -0.124345 0.0017815 0.4842885 
0.0 -2.885815 -0.8198 0.0017815 -0.484288 -0.1243465 
1.275976 2.064573 1.763356 0.1886695 0.3578875 0.2938035 
1.150841 2.531734 -1.125116 0.2046955 0.418472 -0.181607 
2.106139 2.081342 -0.481866 0.342768 0.353335 -0.0875465 
-1.150841 -2.531734 -1.125116 -0.2046955 -0.418472 -0.181607 
1.5 2.427051 -0.927051 0.266329 0.39816 -0.1433085 
-1.038459 -2.350355 -1.548365 -0.168987 -0.392253 -0.2599635 
2.67302 0.716031 -1.158562 0.4438235 0.1399265 -0.182869 
0.0 2.74513 1.210066 0.000932 0.459138 0.1979685 
-0.393601 2.594788 1.453325 -0.073594 0.430258 0.243848 
-1.115244 1.804503 -2.12132 -0.1635015 0.314396 -0.3527355 
-2.772914 1.074686 -0.394966 -0.462149 0.179126 -0.0658195 
2.133845 2.108721 0.0 0.355651 0.351443 -0.0 
0.243426 1.860719 -2.340613 0.0380315 0.313179 -0.387908 
0.469303 1.557775 2.520534 0.077629 0.2815945 0.4058055 
1.361972 1.40529 2.273806 0.226963 0.21602 0.389645 
-0.481866 -2.106139 -2.081342 -0.08604 -0.3421905 -0.354264 
-1.763356 -1.275976 2.064573 -0.2938035 -0.1886695 0.3578875 
0.398377 2.899178 -0.660351 0.0664085 0.4821655 -0.114482 
0.243426 -1.860719 2.340613 0.040447 -0.3138635 0.3871095 
1.557775 -2.520534 0.469303 0.280974 -0.4064985 0.0762415 
1.557775 -2.520534 -0.469303 0.28105 -0.4066085 -0.0753695 
-0.399213 -2.963065 -0.246727 -0.051398 -0.493265 -0.063623 
-1.198821 2.738947 0.246971 -0.2128595 0.4478525 0.064178 
0.799214 2.891584 0.0 0.107724 0.4882545 0.001725 
0.399213 -2.963065 -0.246727 0.05548 -0.4927685 -0.0640405 
-1.557775 2.520534 0.469303 -0.280974 0.4064985 0.0762415 
2.340613 0.243426 1.860719 0.387908 0.0380315 0.313179 
1.361972 -1.40529 2.273806 0.226963 -0.21602 0.389645 
-0.927051 -1.5 -2.427051 -0.13169 -0.243508 -0.416367 
0.716031 1.158562 2.67302 0.140333 0.1835395 0.4434185 
2.899178 -0.660351 0.398377 0.4823755 -0.114019 0.0656765 
1.40529 -2.273806 -1.361972 0.215579 -0.3906305 -0.2256845 
1.038459 2.350355 1.548365 0.168987 0.392253 0.2599635 
-1.453325 -0.393601 -2.594788 -0.243848 -0.073594 -0.430258 
1.692763 1.939733 1.540126 0.2755095 0.342321 0.23856 
0.792248 -2.748733 0.903777 0.1285835 -0.457953 0.154096 
-1.577193 2.551953 0.0 -0.2859925 0.4101315 0.0004465 
-1.860719 2.340613 -0.243426 -0.313908 0.387165 -0.039559 
-0.246971 1.198821 2.738947 -0.0632985 0.212908 0.447955 
1.577193 2.551953 0.0 0.2859925 0.4101315 0.0004465 
2.275957 -0.711259 1.820475 0.3837415 -0.122931 0.2960245 
2.064573 1.763356 -1.275976 0.3578875 0.2938035 -0.1886695 
1.074686 0.394966 -2.772914 0.179126 0.0658195 -0.462149 
-1.198821 -2.738947 -0.246971 -0.212234 -0.448335 -0.062866 
1.846926 -0.243259 2.351529 0.3164145 -0.044489 0.384581 
2.12132 -1.115244 -1.804503 0.352735 -0.163501 -0.3143965 
-0.398377 2.899178 0.660351 -0.0645755 0.4824015 0.114538 
-2.963065 -0.246727 0.399213 0.4935125 0.0586615 -0.05481 
0.0 -0.799214 -2.891584 0.001725 -0.107724 -0.4882545 
-2.594788 1.453325 -0.393601 -0.430258 0.243848 -0.073594 
0.903777 -0.792248 -2.748733 0.154521 -0.129288 -0.457611 
-0.394966 -2.772914 1.074686 -0.0658195 -0.462149 0.179126 
0.639069 -2.377948 -1.713755 0.106498 -0.3963295 -0.285624 
0.243259 -2.351529 1.846926 0.045994 -0.3851625 0.3154905 
-2.106929 -1.942236 -0.888014 -0.353726 -0.322178 -0.145186 
2.748733 -0.903777 -0.792248 0.457953 -0.154096 -0.1285835 
1.40529 2.273806 1.361972 0.215579 0.3906305 0.2256845 
-1.577193 0.0 2.551953 -0.254835 0.0098115 0.430073 
-2.351529 1.846926 0.243259 -0.3851625 0.315491 0.045994 
0.888014 -2.106929 1.942236 0.1451865 -0.3537265 0.322178 
0.0 0.799214 -2.891584 0.001724 0.1062285 -0.488582 
-1.275976 -2.064573 1.763356 -0.1886695 -0.3578875 0.2938035 
0.0 -2.74513 -1.210066 0.000932 -0.459138 -0.1979685 
2.351529 -1.846926 -0.243259 0.3851625 -0.315491 -0.045994 
-0.660351 0.398377 2.899178 -0.114481 0.066408 0.482166 
0.0 -0.799214 2.891584 0.001725 -0.107724 0.4882545 
-1.275976 2.064573 1.763356 -0.1886695 0.3578875 0.2938035 
2.963065 0.246727 0.399213 0.492911 0.063577 0.054743 
0.413857 0.0 2.971317 0.054516 0.0026245 0.497012 
1.275976 -2.064573 1.763356 0.1886695 -0.3578875 0.2938035 
-1.5 2.427051 0.927051 -0.266329 0.39816 0.1433085 
1.158562 -2.67302 0.716031 0.1822835 -0.444507 0.138514 
1.5 2.427051 0.927051 0.266329 0.39816 0.1433085 
2.275957 -0.711259 -1.820475 0.3837415 -0.122931 -0.2960245 
0.0 -2.885815 0.8198 0.0017815 -0.484288 0.1243465 
-1.125116 1.150841 2.531734 -0.1829665 0.205213 0.4176255 
0.246971 -1.198821 -2.738947 0.0641775 -0.2128595 -0.447853 
2.427051 0.927051 1.5 0.416367 0.13169 0.2435085 
-2.108721 0.0 -2.133845 -0.351443 0.0 -0.355651 
-2.12132 -1.115244 -1.804503 -0.352735 -0.163501 -0.3143965 
2.351529 1.846926 -0.243259 0.3851625 0.315491 -0.045994 
-1.713755 0.639069 -2.377948 -0.285624 0.106498 -0.3963295 
0.481866 2.106139 -2.081342 0.08604 0.3421905 -0.354264 
-2.738947 -0.246971 -1.198821 -0.4483355 -0.062866 -0.212234 
1.275976 2.064573 -1.763356 0.1886695 0.3578875 -0.2938035 
-2.133845 -2.108721 0.0 -0.355651 -0.351443 -0.0 
2.377948 -1.713755 -0.639069 0.3963295 -0.285624 -0.106498 
-1.361972 1.40529 2.273806 -0.226963 0.21602 0.389645 
0.0 3.0 0.0 0.002543 0.499562 0.0207715 
-1.557775 -2.520534 0.469303 -0.280974 -0.4064985 0.076241 
-0.711259 -1.820475 2.275957 -0.124437 -0.2965995 0.382811 
0.48738 0.788597 -2.85317 0.104412 0.1163285 -0.4749375 
0.246727 0.399213 2.963065 0.059125 0.055548 0.4933745 
-0.903777 -0.792248 -2.748733 -0.154521 -0.129288 -0.457611 
-2.551953 1.577193 0.0 -0.430073 0.254835 0.0098115 
2.351529 1.846926 0.243259 0.3851625 0.315491 0.045994 
1.125116 -1.150841 2.531734 0.1829665 -0.205213 0.4176255 
-2.377948 -1.713755 -0.639069 -0.3963295 -0.285624 -0.106498 
-2.351529 -1.846926 -0.243259 -0.3851625 -0.315491 -0.045994 
0.481866 -2.106139 2.081342 0.0875465 -0.342768 0.353335 
0.639069 2.377948 1.713755 0.106498 0.3963295 0.285624 
2.748733 0.903777 0.792248 0.457953 0.154096 0.1285835 
-1.942236 0.888014 -2.106929 -0.323266 0.143748 -0.353321 
1.198821 2.738947 0.246971 0.2128595 0.4478525 0.064178 
0.927051 1.5 2.427051 0.13169 0.243508 0.416367 
-1.038459 2.350355 -1.548365 -0.168987 0.392253 -0.2599635 
-0.799214 -2.891584 0.0 -0.1069755 -0.4884175 0.0021715 
2.133845 -2.108721 0.0 0.355651 -0.351443 -0.0 
1.198821 2.738947 -0.246971 0.212908 0.447955 -0.0632985 
1.692763 1.939733 -1.540126 0.2755095 0.342321 -0.23856 
2.106929 -1.942236 0.888014 0.353726 -0.322178 0.145186 
0.0 -2.551953 -1.577193 0.0098115 -0.430073 -0.2548355 
-0.927051 1.5 2.427051 -0.13169 0.243508 0.416367 
2.12132 -1.115244 1.804503 0.352735 -0.163501 0.3143965 
-0.711259 -1.820475 -2.275957 -0.122931 -0.296024 -0.3837415 
-0.246727 -0.399213 -2.963065 -0.059168 -0.052199 -0.493735 
-0.398377 -2.899178 0.660351 -0.0645755 -0.4824015 0.114538 
-0.639069 -2.377948 1.713755 -0.106498 -0.3963295 0.285624 
